ply
format ascii 1.0
comment VCGLIB generated
element vertex 666
property float x
property float y
property float z
property float nx
property float ny
property float nz
property uchar red
property uchar green
property uchar blue
property uchar alpha
element face 0
property list uchar int vertex_indices
end_header
-5.420124 -0.2960567 -6.974054 0.5389752 0.4838697 -0.689475 0 0 255 0 
-5.70196 -0.2132931 -7.220036 0.7018822 0.3828487 -0.6006567 0 0 255 0 
-5.605498 -0.217289 -7.151249 0.6655042 0.3010719 -0.6829789 0 0 255 0 
-5.823545 -0.2537823 -7.352175 0.6619976 0.3427332 -0.6665528 0 0 255 0 
-5.916512 -0.1202221 -7.391745 0.6886283 0.3795163 -0.617865 0 0 255 0 
-6.017672 -0.1471806 -7.507765 0.6635768 0.3470422 -0.6627417 0 0 255 0 
-6.122365 -0.182127 -7.625851 0.6024635 0.366704 -0.7089182 0 0 255 0 
-6.303429 -0.1301517 -7.743805 0.6809227 0.3951765 -0.6165876 0 0 255 0 
-6.394941 -0.1365871 -7.870893 0.685511 0.3085381 -0.6594532 0 0 255 0 
-6.496522 -0.1674786 -7.989658 0.6502506 0.2422025 -0.7200778 0 0 255 0 
-6.602441 -0.04266167 -8.029249 0.6276332 0.3118517 -0.7133194 0 0 255 0 
-6.69594 -0.120388 -8.162731 0.7267216 0.4319234 -0.5341504 0 0 255 0 
-6.851699 -0.01740837 -8.265402 0.5229006 0.3451573 -0.779385 0 0 255 0 
-6.947025 -0.05986595 -8.378481 0.6800081 0.429057 -0.5945578 0 0 255 0 
-7.142462 0.01216507 -8.536943 0.6643497 0.3841716 -0.6411326 0 0 255 0 
-7.03243 -0.09289932 -8.494217 0.6519769 0.3580241 -0.6683896 0 0 255 0 
-7.176564 -0.03202248 -8.595779 0.6720219 0.355808 -0.6494513 0 0 255 0 
-7.251193 -0.01016808 -8.664864 0.6745726 0.3515778 -0.6491103 0 0 255 0 
-7.64834 -0.03028488 -9.052338 0.5628897 0.3550023 -0.7464093 0 0 255 0 
-7.986798 0.06221581 -9.405289 0.8433362 0.3662083 -0.3932887 0 0 255 0 
-8.077374 0.1659298 -9.462385 0.7179211 0.4281251 -0.5489064 0 0 255 0 
-8.198767 0.06036949 -9.589972 0.6140456 0.3293802 -0.7172565 0 0 255 0 
-8.292662 0.05446815 -9.70804 0.8642765 0.2589049 -0.4312691 0 0 255 0 
-8.305975 0.1729069 -9.620857 0.8645689 0.2456106 -0.4384024 0 0 255 0 
-8.775849 0.1541977 -10.09134 0.6639995 0.3560629 -0.6575126 0 0 255 0 
-8.79083 0.140604 -10.10721 0.6715496 0.3764139 -0.6382273 0 0 255 0 
-8.882681 0.1312923 -10.22191 0.7397339 0.387392 -0.5502012 0 0 255 0 
-8.888765 0.1133804 -10.22366 0.6639335 0.3996758 -0.6320224 0 0 255 0 
-8.866096 0.137907 -10.21317 0.8141428 0.2456635 -0.5261372 0 0 255 0 
-8.982815 0.2229862 -10.27884 0.6426377 0.3968717 -0.6553688 0 0 255 0 
-9.094481 0.2304459 -10.38948 0.7317267 0.3985993 -0.5528954 0 0 255 0 
-9.067385 0.2055912 -10.40004 0.729012 0.3609414 -0.5816033 0 0 255 0 
-9.292961 0.2079582 -10.58114 0.641939 0.3008111 -0.705285 0 0 255 0 
-9.911708 0.3431072 -11.11936 0.8173828 0.2447318 -0.5215279 0 0 255 0 
-9.911744 0.2093582 -11.19422 0.6780671 0.3340451 -0.6547041 0 0 255 0 
-10.51371 0.4342098 -11.80743 0.7812032 0.435402 -0.4473783 0 0 255 0 
-10.46535 0.4443531 -11.66512 0.8208284 0.2923709 -0.4906721 0 0 255 0 
-10.55626 0.4722672 -11.81016 0.7708068 0.3953032 -0.4995925 0 0 255 0 
-10.59333 0.4770775 -11.95567 0.5558019 0.8209967 -0.1305719 0 0 255 0 
-10.51093 0.5096188 -11.97828 0.8619277 0.4950527 -0.1095577 0 0 255 0 
4.922287 1.076433 -1.446857 0.7291053 0.2343487 -0.6430283 0 0 255 0 
4.719463 1.078146 -1.572094 0.6605071 0.6695486 -0.3397569 0 0 255 0 
4.85194 1.048046 -1.546036 0.453256 0.5145587 -0.7278653 0 0 255 0 
4.66593 1.183653 -1.74712 0.9873236 0.1476232 -0.05830698 0 0 255 0 
4.703217 1.292782 -1.788853 0.878493 0.2901746 -0.3795373 0 0 255 0 
4.481508 1.203028 -1.883682 0.7632452 0.6461071 -0.001614451 0 0 255 0 
4.398176 1.260143 -2.224918 0.4919891 0.7094069 -0.5046667 0 0 255 0 
4.011913 1.420702 -2.57502 0.6895401 0.7074257 0.1551863 0 0 255 0 
3.671631 1.375538 -2.809063 0.5172678 0.6355987 -0.5731037 0 0 255 0 
3.711353 1.265713 -2.741997 0.4428923 0.1381828 -0.8858615 0 0 255 0 
3.703968 1.456305 -2.895237 0.0294501 0.9808449 -0.1925477 0 0 255 0 
3.589987 1.491066 -3.061577 -0.05341312 0.9918386 -0.115773 0 0 255 0 
3.433479 1.463259 -3.173481 0.007336155 0.9666211 -0.2561038 0 0 255 0 
3.31793 1.420826 -3.228088 0.1103512 0.9556634 -0.2730004 0 0 255 0 
3.195602 1.403746 -3.32935 0.0388578 0.9712293 -0.2349529 0 0 255 0 
3.038403 1.424366 -3.27219 0.583428 0.5926344 -0.5553343 0 0 255 0 
2.927972 1.434355 -3.403854 0.5775388 0.786218 -0.2197963 0 0 255 0 
2.805324 1.418074 -3.503948 0.6799676 0.2520885 -0.6885458 0 0 255 0 
2.688999 1.41135 -3.615879 0.6776547 0.1048455 -0.7278679 0 0 255 0 
2.410641 1.525755 -3.910313 0.5064896 0.5372262 -0.6744305 0 0 255 0 
2.265709 1.483307 -3.951065 0.7081184 0.6819175 -0.18318 0 0 255 0 
-2.167844 -0.8911476 -3.904472 0.7376786 0.4082294 -0.5377537 0 0 255 0 
-2.160084 -0.9057159 -3.89642 0.7437865 0.3996927 -0.5357492 0 0 255 0 
-2.263865 -0.7840767 -3.953724 0.7546824 0.366801 -0.5439772 0 0 255 0 
-2.332371 -0.8201275 -4.084602 0.903459 0.3949539 -0.1666504 0 0 255 0 
-2.331576 -0.8188705 -4.084061 0.9048637 0.390848 -0.168699 0 0 255 0 
-2.470394 -0.7248001 -4.293808 0.8556355 0.3635982 -0.368353 0 0 255 0 
-2.57221 -0.7970543 -4.391914 0.7217875 0.432744 -0.5401435 0 0 255 0 
-2.562119 -0.6523685 -4.356304 0.7394214 0.4617932 -0.4899005 0 0 255 0 
-2.691909 -0.7100792 -4.437122 0.6688133 0.3461749 -0.6579137 0 0 255 0 
-2.961645 -0.7355022 -4.734962 0.5195414 0.2385512 -0.8204697 0 0 255 0 
-3.06716 -0.6548233 -4.790638 0.5964131 0.3641084 -0.7153439 0 0 255 0 
-3.174511 -0.6552315 -4.892197 0.6331686 0.3965609 -0.6647071 0 0 255 0 
-3.275693 -0.6868057 -5.00082 0.6153867 0.3068115 -0.7260611 0 0 255 0 
-3.388133 -0.6652775 -5.195248 0.2750065 0.3759741 -0.8848807 0 0 255 0 
-3.532057 -0.5948658 -5.194649 0.6984113 0.3654559 -0.615356 0 0 255 0 
-3.628981 -0.6045189 -5.307915 0.6795543 0.3356036 -0.6523613 0 0 255 0 
-3.731272 -0.6205502 -5.427307 0.6607888 0.3547264 -0.6614577 0 0 255 0 
-3.824448 -0.636776 -5.546886 0.6265941 0.3574225 -0.6925511 0 0 255 0 
-3.938787 -0.5399628 -5.572807 0.76386 0.3859093 -0.5172924 0 0 255 0 
-4.025301 -0.550005 -5.715076 0.7445418 0.5373048 -0.3961807 0 0 255 0 
-4.126563 -0.6030903 -5.85603 0.5951174 0.5286767 -0.6052568 0 0 255 0 
-4.343401 -0.4692402 -6.002563 0.6113988 0.3526638 -0.7083912 0 0 255 0 
-4.236212 -0.6071739 -5.937004 0.6211653 0.3341261 -0.7088814 0 0 255 0 
-4.463152 -0.5022793 -6.105152 0.6469421 0.3001337 -0.7009884 0 0 255 0 
-4.850832 -0.5053215 -6.492329 0.5487444 0.3316455 -0.7673918 0 0 255 0 
-4.993794 -0.5241165 -6.619392 0.6667037 0.3825223 -0.6396739 0 0 255 0 
-5.090971 -0.4177036 -6.653893 0.6400413 0.3347445 -0.6915877 0 0 255 0 
-5.129789 -0.4942017 -6.755749 0.7591905 0.374783 -0.5321347 0 0 255 0 
-5.281177 -0.3791256 -6.940626 0.667547 0.3880678 -0.6354396 0 0 255 0 
-5.408284 -0.4369698 -7.035593 0.6035823 0.5165769 -0.6073183 0 0 255 0 
-5.723011 -0.3603096 -7.309771 0.70717 0.3472606 -0.6158896 0 0 255 0 
-5.822872 -0.3971806 -7.423544 0.7042012 0.392085 -0.5919203 0 0 255 0 
-5.806003 -0.4017582 -7.414711 0.6962413 0.3490907 -0.6272032 0 0 255 0 
-5.917017 -0.404705 -7.539476 0.591265 0.3502566 -0.7264474 0 0 255 0 
-5.900109 -0.4025898 -7.533258 0.6095002 0.3126234 -0.7285427 0 0 255 0 
-5.906114 -0.266243 -7.466742 0.596595 0.3249777 -0.7338006 0 0 255 0 
-5.99881 -0.2726612 -7.583334 0.7070548 0.3819041 -0.595166 0 0 255 0 
-6.179859 -0.2563477 -7.725536 0.5739217 0.3001875 -0.7619062 0 0 255 0 
-6.300435 -0.2675018 -7.830162 0.5793737 0.2799781 -0.7654653 0 0 255 0 
-6.409771 -0.2854576 -7.937357 0.7605025 0.3094797 -0.5708398 0 0 255 0 
-6.502937 -0.3323936 -8.070183 0.7171404 0.4282159 -0.5498544 0 0 255 0 
-6.604955 -0.2346058 -8.118101 0.6200388 0.4132651 -0.6669056 0 0 255 0 
-6.698272 -0.2610302 -8.231678 0.6402245 0.3832375 -0.665764 0 0 255 0 
-6.787289 -0.2815208 -8.336853 0.6932756 0.3206972 -0.6453844 0 0 255 0 
-6.883844 -0.1678066 -8.37871 0.6786661 0.4457687 -0.5836979 0 0 255 0 
-6.974721 -0.2518158 -8.512506 0.6682317 0.3523521 -0.6552208 0 0 255 0 
-7.069641 -0.1340065 -8.560698 0.6007256 0.3916233 -0.6969651 0 0 255 0 
-7.081862 -0.2821674 -8.622633 0.6682532 0.3496184 -0.656661 0 0 255 0 
-7.176629 -0.1665192 -8.669724 0.6424153 0.3890647 -0.6602499 0 0 255 0 
-7.542879 -0.1457481 -9.023401 0.5869185 0.3210829 -0.7432571 0 0 255 0 
-7.713028 -0.132967 -9.193119 0.6725184 0.4738757 -0.5684718 0 0 255 0 
-7.907465 -0.05298615 -9.34012 0.841312 0.365567 -0.3981892 0 0 255 0 
-7.90754 -0.04931831 -9.338423 0.8351134 0.3708524 -0.4062672 0 0 255 0 
-7.816621 -0.1586609 -9.280508 0.6868559 0.3823783 -0.6180745 0 0 255 0 
-7.961462 -0.06540489 -9.484589 0.4839345 0.7212099 -0.4956443 0 0 255 0 
-8.091895 -0.01960373 -9.540794 0.391326 0.6252057 -0.6752633 0 0 255 0 
-8.424448 -0.00876236 -9.824936 0.4412046 0.3672295 -0.8188286 0 0 255 0 
-8.659491 0.02620316 -10.04521 0.6848148 0.3473152 -0.6406257 0 0 255 0 
-8.776112 0.01689148 -10.16546 0.6576903 0.3679179 -0.6573278 0 0 255 0 
-8.78383 0.007715225 -10.18327 0.6654899 0.3803008 -0.6422564 0 0 255 0 
-8.774088 0.007804871 -10.16522 0.6536946 0.4264287 -0.6251732 0 0 255 0 
-8.877757 -0.007284164 -10.29376 0.6319008 0.4179544 -0.6526985 0 0 255 0 
-8.873396 -0.001548767 -10.28482 0.637071 0.404301 -0.6562631 0 0 255 0 
-8.97116 0.1081543 -10.34188 0.755942 0.3485852 -0.5541108 0 0 255 0 
-9.172183 0.1030426 -10.55296 0.5284083 0.3142466 -0.7886908 0 0 255 0 
-9.493528 0.03175545 -10.89763 0.7209864 0.3487621 -0.598784 0 0 255 0 
-9.490885 0.03228378 -10.89156 0.7009581 0.3960223 -0.5931478 0 0 255 0 
-9.688543 0.1246185 -11.05995 0.5877367 0.2885669 -0.7558398 0 0 255 0 
-9.801077 0.1027966 -11.15707 0.6105999 0.3154652 -0.7263947 0 0 255 0 
-9.994748 0.2006569 -11.32285 0.6419062 0.4201776 -0.64141 0 0 255 0 
-10.4247 0.3548622 -11.90738 0.9432791 0.3203407 0.0872127 0 0 255 0 
-10.52423 0.357832 -12.00759 0.3125494 0.8039582 -0.5059273 0 0 255 0 
-10.3902 0.4358578 -12.08088 0.3972526 0.8659102 0.3039568 0 0 255 0 
4.818066 0.9199047 -1.64843 0.7720283 0.3910064 -0.5010853 0 0 255 0 
4.783937 1.066139 -1.735256 0.435331 0.2409811 -0.8674182 0 0 255 0 
4.776932 1.103771 -1.741028 0.5853944 0.1199913 -0.8018201 0 0 255 0 
4.652416 1.044352 -1.799301 0.540736 0.3875037 -0.7466221 0 0 255 0 
4.623272 1.176319 -1.946213 0.9610624 0.01772954 -0.2757633 0 0 255 0 
4.536491 1.149822 -2.079937 0.7838652 -0.2671527 -0.5605212 0 0 255 0 
4.430609 1.067278 -2.149841 0.6444979 -0.1025889 -0.7576925 0 0 255 0 
4.327805 1.172865 -2.303188 0.6449518 0.3357605 -0.6865137 0 0 255 0 
4.110798 1.101274 -2.424004 0.513806 0.7463126 -0.4231092 0 0 255 0 
3.977728 1.122053 -2.47924 0.4980001 0.8393594 -0.2178799 0 0 255 0 
3.886797 1.264442 -2.837326 0.4238371 0.2130142 -0.8803334 0 0 255 0 
3.323851 1.341553 -3.346268 0.4469233 0.8945605 -0.004551142 0 0 255 0 
3.205118 1.338896 -3.467422 0.3993756 0.8413141 -0.3642663 0 0 255 0 
3.064327 1.383665 -3.433529 0.1049119 0.9612639 -0.254882 0 0 255 0 
3.082868 1.327477 -3.574848 0.2334042 0.9164848 -0.3249264 0 0 255 0 
2.944 1.37454 -3.541389 0.08732574 0.9630117 -0.2549153 0 0 255 0 
2.809922 1.347878 -3.63575 0.06379443 0.9651057 -0.2539676 0 0 255 0 
2.822819 1.373573 -3.628712 0.01731025 0.9857638 -0.1672422 0 0 255 0 
2.681435 1.327253 -3.737789 0.1374509 0.9541825 -0.2657878 0 0 255 0 
2.157217 1.369692 -4.119289 0.5796292 -0.04761559 -0.8134877 0 0 255 0 
-2.141343 -1.024248 -3.982376 0.6922758 0.4105831 -0.5934437 0 0 255 0 
-2.140741 -1.024593 -3.985001 0.6818501 0.3896384 -0.6190818 0 0 255 0 
-2.238654 -0.9159832 -4.031387 0.7127104 0.3701364 -0.5958538 0 0 255 0 
-2.238809 -0.9159393 -4.03001 0.7181885 0.3759455 -0.5855506 0 0 255 0 
-2.300507 -0.9688168 -4.1539 0.8592274 0.3833646 -0.338763 0 0 255 0 
-2.293684 -0.9611301 -4.161888 0.8990768 0.3956363 -0.1874351 0 0 255 0 
-2.356352 -0.7992268 -4.26313 0.9087397 0.4062015 -0.09588153 0 0 255 0 
-2.396761 -0.8356228 -4.403519 0.9251181 0.3745357 -0.06228872 0 0 255 0 
-2.783979 -0.8240643 -4.627213 0.5472592 0.2590228 -0.7958728 0 0 255 0 
-3.002007 -0.8724556 -4.808876 0.5727804 0.2124101 -0.7917086 0 0 255 0 
-3.305462 -0.7802372 -5.122643 0.2207167 0.6301962 -0.7444037 0 0 255 0 
-3.446337 -0.8598881 -5.224659 0.8671706 0.2481877 -0.4317617 0 0 255 0 
-3.528279 -0.8532238 -5.350342 0.6841143 0.3542284 -0.6375806 0 0 255 0 
-3.528503 -0.7181625 -5.276691 0.5755732 0.3580027 -0.7352207 0 0 255 0 
-3.701389 -0.7537556 -5.528744 0.8543901 0.3759955 -0.3586714 0 0 255 0 
-3.627257 -0.7438965 -5.392166 0.579383 0.3729739 -0.7247103 0 0 255 0 
-3.82099 -0.8052673 -5.644489 0.6640664 0.440772 -0.6039334 0 0 255 0 
-3.936047 -0.7178459 -5.681404 0.7758124 0.4865588 -0.4017152 0 0 255 0 
-4.127344 -0.7477665 -5.918888 0.5822882 0.462885 -0.6683391 0 0 255 0 
-4.343995 -0.625124 -6.047798 0.6427912 0.3088366 -0.7010272 0 0 255 0 
-4.373948 -0.7434654 -6.13728 0.71807 0.3474682 -0.6030267 0 0 255 0 
-4.478494 -0.6406612 -6.178326 0.6503447 0.2986372 -0.6984758 0 0 255 0 
-4.742692 -0.5916138 -6.440247 0.6174393 0.35815 -0.7003545 0 0 255 0 
-4.992267 -0.660532 -6.69006 0.6624696 0.328589 -0.6731743 0 0 255 0 
-4.887981 -0.638586 -6.577068 0.5944731 0.3280138 -0.7341717 0 0 255 0 
-5.207166 -0.5088444 -6.881765 0.6786043 0.397836 -0.6174328 0 0 255 0 
-5.077774 -0.5852909 -6.857103 0.890662 0.4177881 -0.1793721 0 0 255 0 
-5.30349 -0.538229 -6.996069 0.6720397 0.3880279 -0.6307116 0 0 255 0 
-5.184834 -0.6263275 -6.965506 0.6747258 0.4502708 -0.5848083 0 0 255 0 
-5.409053 -0.5763111 -7.104454 0.6695258 0.2905717 -0.6835959 0 0 255 0 
-5.523271 -0.6063995 -7.222687 0.6945163 0.2657265 -0.6686073 0 0 255 0 
-5.722501 -0.4981174 -7.382338 0.6569153 0.3170021 -0.6840842 0 0 255 0 
-5.610926 -0.4730759 -7.274317 0.6348385 0.3486291 -0.6895189 0 0 255 0 
-5.825158 -0.5255604 -7.498335 0.6986338 0.3570699 -0.6200097 0 0 255 0 
-5.911697 -0.5313549 -7.6194 0.6173302 0.3573509 -0.7008588 0 0 255 0 
-5.909615 -0.5257645 -7.618706 0.5836504 0.2634696 -0.7680728 0 0 255 0 
-6.026973 -0.5308895 -7.725918 0.6788228 0.2366152 -0.6951342 0 0 255 0 
-6.002501 -0.4097443 -7.66099 0.6167447 0.2920694 -0.7309723 0 0 255 0 
-5.985854 -0.3789902 -7.659492 0.7245052 0.2530212 -0.6411487 0 0 255 0 
-5.989601 -0.392786 -7.66802 0.7195687 0.2575812 -0.6448815 0 0 255 0 
-6.093539 -0.4374771 -7.735346 0.6744271 0.4049188 -0.6174054 0 0 255 0 
-6.190895 -0.4712276 -7.849205 0.6035453 0.5814798 -0.5455408 0 0 255 0 
-6.308355 -0.4032021 -7.90625 0.5568544 0.3597171 -0.7486757 0 0 255 0 
-6.408664 -0.4395828 -8.018343 0.7753561 0.357217 -0.520786 0 0 255 0 
-6.417131 -0.4206848 -8.013622 0.68115 0.5036672 -0.5313704 0 0 255 0 
-6.492931 -0.4661808 -8.144991 0.6634598 0.4209485 -0.6185653 0 0 255 0 
-6.68703 -0.3951664 -8.30394 0.6275514 0.3358235 -0.7024258 0 0 255 0 
-6.787847 -0.4102726 -8.418137 0.7192941 0.2731254 -0.6387625 0 0 255 0 
-6.907402 -0.4427891 -8.529076 0.7561558 0.371969 -0.5383928 0 0 255 0 
-6.884953 -0.2947407 -8.459883 0.657318 0.3218831 -0.6814134 0 0 255 0 
-6.983688 -0.3944054 -8.581596 0.6583129 0.346128 -0.6684446 0 0 255 0 
-7.182853 -0.3819809 -8.789995 0.8007833 0.2397795 -0.5488635 0 0 255 0 
-7.811204 -0.3164024 -9.365631 0.8109168 0.3641573 -0.458043 0 0 255 0 
-8.156353 -0.2394466 -9.693087 0.6885688 0.3670078 -0.6254421 0 0 255 0 
-8.256002 -0.1386089 -9.740778 0.777013 0.2743426 -0.5665563 0 0 255 0 
-8.250695 -0.2686825 -9.820923 0.8055021 0.26033 -0.5323473 0 0 255 0 
-8.355554 -0.1562767 -9.855301 0.6202443 0.3554393 -0.6992564 0 0 255 0 
-8.560614 -0.2278919 -10.08331 0.7272003 0.3721282 -0.576802 0 0 255 0 
-8.452545 -0.1870403 -9.967918 0.5922946 0.4324458 -0.6798368 0 0 255 0 
-8.778379 -0.1201096 -10.24103 0.6612458 0.3483951 -0.6643596 0 0 255 0 
-8.790035 -0.1341152 -10.25511 0.6991981 0.3464528 -0.6253732 0 0 255 0 
-8.768984 -0.1318645 -10.23505 0.7387815 0.399715 -0.5426131 0 0 255 0 
-8.877455 -0.1511269 -10.36265 0.6181179 0.4243018 -0.661739 0 0 255 0 
-9.599407 -0.005447388 -11.01243 0.6609659 0.3748425 -0.6500898 0 0 255 0 
-9.758035 -0.09659004 -11.2021 0.5709788 0.3370459 -0.7485873 0 0 255 0 
-10.22412 0.1552658 -11.79489 0.9047074 0.1775424 0.3872753 0 0 255 0 
-10.17399 0.2051048 -11.99743 0.9798393 0.1697792 -0.1053025 0 0 255 0 
-10.19656 0.3674679 -12.08884 0.9382175 0.3027632 0.1675798 0 0 255 0 
5.038982 0.8189659 -1.587822 0.9011911 0.3502925 -0.2552453 0 0 255 0 
4.856247 0.8195972 -1.73502 0.7342438 0.4393716 -0.5175306 0 0 255 0 
4.743206 0.9304752 -1.793167 0.4256786 0.3513728 -0.8338667 0 0 255 0 
4.66831 0.8861141 -1.899261 0.6731861 0.5225229 -0.5232505 0 0 255 0 
4.577465 0.9910316 -1.963596 0.7166548 0.330149 -0.6143342 0 0 255 0 
4.487514 0.9288502 -2.052139 0.6516805 0.5251863 -0.5472575 0 0 255 0 
4.266682 1.08325 -2.367966 0.7190373 -0.3042014 -0.6248579 0 0 255 0 
4.256926 1.092813 -2.396255 0.7994658 -0.276282 -0.5334055 0 0 255 0 
4.117092 1.088079 -2.581375 0.6770908 -0.2935579 -0.6748128 0 0 255 0 
4.04565 1.186558 -2.705231 0.7737895 -0.1659659 -0.6113133 0 0 255 0 
3.847189 1.126871 -2.889877 0.810193 -0.08046019 -0.5806148 0 0 255 0 
2.963555 1.319006 -3.717949 0.2379539 0.893 -0.3820057 0 0 255 0 
2.844573 1.317518 -3.801014 0.2215192 0.8970885 -0.3823111 0 0 255 0 
2.686293 1.269011 -3.844208 0.3871017 0.7665638 -0.5123782 0 0 255 0 
2.463146 1.238695 -4.017597 0.5540562 0.3985901 -0.7308528 0 0 255 0 
2.228392 1.134445 -4.157955 0.5491835 0.2270875 -0.8042569 0 0 255 0 
2.266457 1.194181 -4.192921 0.6328564 0.486994 -0.6019371 0 0 255 0 
-2.113053 -1.178551 -4.061691 0.619505 0.3885652 -0.6820773 0 0 255 0 
-2.310494 -0.9414616 -4.341469 0.9077608 0.4095147 -0.09092872 0 0 255 0 
-2.515636 -1.103895 -4.486698 0.5137823 0.2357288 -0.8248992 0 0 255 0 
-2.627699 -1.09263 -4.582272 0.6728099 0.3377368 -0.6582251 0 0 255 0 
-2.721953 -0.9768257 -4.624077 0.7185181 0.2831693 -0.6352531 0 0 255 0 
-2.789688 -0.967123 -4.692219 0.5053135 0.4257279 -0.7506083 0 0 255 0 
-2.914311 -1.011 -4.77964 0.5470395 0.3876294 -0.7419512 0 0 255 0 
-3.114489 -1.024452 -5.015984 0.8354657 0.3646907 -0.4110934 0 0 255 0 
-3.038141 -0.9928513 -4.882423 0.8421694 0.3387084 -0.4195554 0 0 255 0 
-3.202028 -0.9236984 -5.109043 0.971046 0.1258542 -0.2030533 0 0 255 0 
-3.317528 -0.9479771 -5.210262 0.5770518 0.3442516 -0.7406097 0 0 255 0 
-3.420984 -0.9615211 -5.322109 0.616815 0.3245732 -0.7170708 0 0 255 0 
-3.534997 -1.00004 -5.429794 0.6943466 0.3416474 -0.6333708 0 0 255 0 
-3.621846 -0.8791676 -5.467575 0.8672986 0.2822894 -0.4100078 0 0 255 0 
-3.709661 -0.9014187 -5.602741 0.8306729 0.2570818 -0.4938537 0 0 255 0 
-3.834922 -0.9371681 -5.711723 0.6386693 0.2870591 -0.7139319 0 0 255 0 
-4.109617 -0.8756199 -5.992897 0.4394031 0.5315405 -0.7241469 0 0 255 0 
-4.258105 -0.8282871 -6.099094 0.6467547 0.4699455 -0.6007165 0 0 255 0 
-4.292747 -0.8129902 -6.036434 0.8566798 0.02572142 -0.5152067 0 0 255 0 
-4.353456 -0.8616886 -6.222408 0.686134 0.163772 -0.7088007 0 0 255 0 
-4.460853 -0.7617741 -6.26152 0.1526162 0.6486295 -0.745646 0 0 255 0 
-4.785185 -0.7524891 -6.548077 0.5838008 0.3501297 -0.7325202 0 0 255 0 
-4.893076 -0.7727928 -6.652542 0.6635786 0.3688562 -0.6508524 0 0 255 0 
-5.031328 -0.7233276 -6.768776 0.7307598 0.3456201 -0.5886741 0 0 255 0 
-5.090322 -0.7326431 -6.912245 0.771621 0.4050676 -0.4904296 0 0 255 0 
-5.208321 -0.8018436 -7.002281 0.6778187 0.538751 -0.5003083 0 0 255 0 
-5.308237 -0.6812305 -7.062544 0.6364418 0.2614014 -0.7256794 0 0 255 0 
-5.411704 -0.7037525 -7.185608 0.7711038 0.2818528 -0.5709264 0 0 255 0 
-5.518526 -0.7363644 -7.304317 0.6753456 0.3045724 -0.6716717 0 0 255 0 
-5.628831 -0.7601166 -7.416502 0.5988922 0.3345555 -0.7275991 0 0 255 0 
-5.613429 -0.6073971 -7.349028 0.6531967 0.3471847 -0.6729022 0 0 255 0 
-5.726316 -0.6338005 -7.456547 0.67277 0.3370455 -0.6586208 0 0 255 0 
-5.823571 -0.6539249 -7.571871 0.7115747 0.2499989 -0.6566284 0 0 255 0 
-5.917137 -0.668047 -7.693192 0.6408083 0.3485354 -0.6840234 0 0 255 0 
-6.026608 -0.565237 -7.723368 0.5985635 0.318994 -0.7348232 0 0 255 0 
-6.025298 -0.6939716 -7.796721 0.6135122 0.4225639 -0.6671154 0 0 255 0 
-6.209058 -0.6495342 -7.929562 0.7097265 0.380568 -0.5928366 0 0 255 0 
-6.30604 -0.5417747 -7.975937 0.7031868 0.3800707 -0.600895 0 0 255 0 
-6.393005 -0.5749741 -8.097097 0.681709 0.4602944 -0.5686839 0 0 255 0 
-6.584795 -0.4974842 -8.260866 0.6537931 0.4237952 -0.6268586 0 0 255 0 
-6.672879 -0.5249348 -8.378649 0.5703645 0.5177178 -0.6376933 0 0 255 0 
-6.895731 -0.6100845 -8.586887 0.6482503 0.4757932 -0.5944675 0 0 255 0 
-7.089639 -0.5054169 -8.749208 0.6664991 0.2886973 -0.6873372 0 0 255 0 
-7.781729 -0.4341736 -9.484318 0.8100734 0.4776057 -0.3401079 0 0 255 0 
-7.890425 -0.2701836 -9.577957 0.8774414 0.4458951 -0.1768462 0 0 255 0 
-7.931225 -0.4461327 -9.628551 0.5265027 0.3988759 -0.7507949 0 0 255 0 
-8.158184 -0.3834534 -9.76795 0.8511429 0.2731105 -0.4482918 0 0 255 0 
-8.047606 -0.3412132 -9.653271 0.5437392 0.3926336 -0.7417458 0 0 255 0 
-8.232744 -0.416378 -9.899265 0.5733557 0.5183768 -0.6344667 0 0 255 0 
-8.336708 -0.3193607 -9.929371 0.6657677 0.3297625 -0.6693354 0 0 255 0 
-8.455005 -0.3437901 -10.03941 0.6393276 0.3099706 -0.7036895 0 0 255 0 
-8.673337 -0.3878212 -10.27421 0.5957432 0.3596788 -0.7181368 0 0 255 0 
-8.681273 -0.3815022 -10.27551 0.6149218 0.3464576 -0.7084055 0 0 255 0 
-8.780064 -0.260376 -10.31386 0.7578815 0.3312006 -0.5620691 0 0 255 0 
-8.785684 -0.2688408 -10.33267 0.7911444 0.2992165 -0.5334401 0 0 255 0 
-8.860541 -0.2842216 -10.44899 0.817964 0.2710417 -0.5074155 0 0 255 0 
-8.86728 -0.2899666 -10.46079 0.7946232 0.272456 -0.5425315 0 0 255 0 
-9.735689 -0.211237 -11.29521 0.7337064 0.4144945 -0.5383942 0 0 255 0 
-10.14875 0.02249718 -11.9491 0.9653491 0.2112708 0.1531851 0 0 255 0 
-10.13019 0.2284622 -12.1809 0.4530476 0.7677405 0.4531239 0 0 255 0 
4.970016 0.752634 -1.708786 0.6266175 0.7534733 -0.199069 0 0 255 0 
4.754509 0.7852135 -1.834492 0.7084272 0.3257985 -0.6260874 0 0 255 0 
4.695267 0.7708092 -1.970779 0.5684611 0.6051567 -0.5573488 0 0 255 0 
4.592659 0.7476234 -2.057644 0.5768054 0.5587924 -0.5958576 0 0 255 0 
4.587877 0.8347206 -2.025719 0.6387427 0.550401 -0.5376487 0 0 255 0 
4.59762 0.8595142 -2.016582 0.673147 0.4772519 -0.5648931 0 0 255 0 
4.494675 0.8163643 -2.131569 0.6201319 0.3672411 -0.6932315 0 0 255 0 
4.345282 0.8033409 -2.300896 0.5409993 0.4305609 -0.7224525 0 0 255 0 
4.222937 0.8017178 -2.409538 0.6166264 0.4022484 -0.6767332 0 0 255 0 
3.982813 0.9043446 -2.616135 0.6441704 0.1063944 -0.757446 0 0 255 0 
3.921957 0.9820805 -2.747124 0.7487223 -0.2928596 -0.594683 0 0 255 0 
3.764042 0.845108 -2.872456 0.6559245 0.3543655 -0.6664742 0 0 255 0 
3.726051 1.015837 -2.967575 0.6235901 0.08835737 -0.7767411 0 0 255 0 
3.721306 1.084108 -3.079048 0.7968599 -0.1778477 -0.5773941 0 0 255 0 
3.427792 0.9745407 -3.287579 0.6327749 0.41806 -0.6517842 0 0 255 0 
3.552729 1.039465 -3.20055 0.7157252 0.05084695 -0.696528 0 0 255 0 
3.303736 1.002518 -3.329319 0.4595696 0.7379085 -0.4942531 0 0 255 0 
3.173264 1.023615 -3.365677 0.8930566 0.432805 0.122999 0 0 255 0 
3.087322 1.028795 -3.510929 0.7719936 0.602039 0.2039002 0 0 255 0 
2.958431 1.096821 -3.621731 0.7008206 0.6669216 0.2531111 0 0 255 0 
2.842803 1.018324 -3.771267 0.7949506 0.5830156 0.1677686 0 0 255 0 
2.616242 1.122574 -4.066265 0.5967997 0.7850863 0.1657368 0 0 255 0 
2.339428 1.043243 -4.162407 0.9878243 0.0356274 -0.1514406 0 0 255 0 
2.207933 1.018045 -4.247849 0.8673079 0.008023411 -0.4977078 0 0 255 0 
-2.110008 -1.311407 -4.135986 0.677296 0.3531826 -0.6453924 0 0 255 0 
-2.230219 -1.256954 -4.303219 0.8391846 0.4071116 -0.3605943 0 0 255 0 
-2.309469 -1.140474 -4.371338 0.8661975 0.3712891 -0.3344349 0 0 255 0 
-2.422077 -1.232389 -4.455704 0.6041039 0.2522478 -0.75593 0 0 255 0 
-2.549767 -1.248749 -4.556873 0.7155728 0.2072545 -0.6670839 0 0 255 0 
-2.642269 -1.246319 -4.684521 0.6951059 0.3387958 -0.6340699 0 0 255 0 
-2.796235 -1.104755 -4.763008 0.5649128 0.3742808 -0.7353828 0 0 255 0 
-2.900324 -1.124079 -4.87096 0.5241945 0.5212971 -0.6734014 0 0 255 0 
-3.014936 -1.128538 -4.967083 0.6270763 0.5129319 -0.5862383 0 0 255 0 
-3.093523 -1.165344 -5.085865 0.5489405 0.435024 -0.7137356 0 0 255 0 
-3.176308 -1.167263 -5.156864 0.4485179 0.5291189 -0.720322 0 0 255 0 
-3.286251 -1.079489 -5.206463 0.7397612 0.4455361 -0.5042325 0 0 255 0 
-3.429466 -1.104046 -5.391911 0.6543921 0.3284063 -0.6811162 0 0 255 0 
-3.545558 -1.157328 -5.515919 0.6804634 0.3959558 -0.6165935 0 0 255 0 
-3.615028 -1.020771 -5.559643 0.7449037 0.3752836 -0.5516157 0 0 255 0 
-3.720627 -1.038338 -5.680573 0.7248818 0.2563299 -0.6394068 0 0 255 0 
-3.871231 -1.092503 -5.785923 0.4812806 0.2602202 -0.8370508 0 0 255 0 
-4.035939 -1.000359 -5.935532 0.6306221 0.3153728 -0.7091224 0 0 255 0 
-4.179065 -0.9888611 -6.081318 0.4663898 0.4874195 -0.7381752 0 0 255 0 
-4.6011 -0.9523602 -6.377998 0.8210036 0.4142168 -0.3929099 0 0 255 0 
-4.655918 -0.9225502 -6.516632 0.5944711 0.3413681 -0.7280592 0 0 255 0 
-4.772763 -0.9486847 -6.617622 0.6018727 0.3511173 -0.7172619 0 0 255 0 
-4.930069 -0.9659195 -6.776176 0.6715015 0.337885 -0.6594841 0 0 255 0 
-4.984253 -0.8250198 -6.867086 0.8921354 0.3946396 -0.2198947 0 0 255 0 
-5.06867 -0.862154 -6.988909 0.7344086 0.3265825 -0.5949686 0 0 255 0 
-5.198647 -0.9360905 -7.090525 0.6394158 0.3667888 -0.6757307 0 0 255 0 
-5.319002 -0.8184757 -7.136951 0.6787584 0.4473277 -0.5823954 0 0 255 0 
-5.418792 -0.8445435 -7.260021 0.8145602 0.3854389 -0.4335058 0 0 255 0 
-5.633596 -0.891489 -7.49478 0.5617861 0.3958092 -0.7264504 0 0 255 0 
-5.72876 -0.7696495 -7.530455 0.6480114 0.3578169 -0.6723451 0 0 255 0 
-5.829694 -0.7927933 -7.644085 0.6563776 0.3512387 -0.6676817 0 0 255 0 
-5.930833 -0.8154621 -7.758743 0.6111377 0.3435506 -0.7130806 0 0 255 0 
-6.037606 -0.8352737 -7.868767 0.6338618 0.3364918 -0.6964141 0 0 255 0 
-6.185877 -0.7989178 -8.024719 0.5918728 0.2340606 -0.771299 0 0 255 0 
-6.483531 -0.7435074 -8.28968 0.6205977 0.354155 -0.6995949 0 0 255 0 
-6.580307 -0.7483292 -8.414215 0.6576021 0.5606775 -0.5031889 0 0 255 0 
-6.783956 -0.7115498 -8.556086 0.7356887 0.2028413 -0.646233 0 0 255 0 
-6.986581 -0.6227112 -8.70989 0.7272167 0.3229496 -0.6056892 0 0 255 0 
-7.09417 -0.6359367 -8.829378 0.6255426 0.2399808 -0.742365 0 0 255 0 
-7.713451 -0.5629673 -9.411612 0.8601866 0.327549 -0.3908853 0 0 255 0 
-7.756751 -0.5621262 -9.568035 0.8842604 0.3791754 -0.2725983 0 0 255 0 
-7.802309 -0.4154453 -9.659725 0.4525967 0.8783268 -0.153944 0 0 255 0 
-8.11941 -0.5350246 -9.855707 0.7156677 0.5532587 -0.4262906 0 0 255 0 
-8.235204 -0.5592232 -9.971058 0.5844191 0.4004965 -0.7057316 0 0 255 0 
-8.455177 -0.4560108 -10.09579 0.7243938 0.2625462 -0.6374345 0 0 255 0 
-8.77037 -0.4172344 -10.39071 0.7157497 0.3664371 -0.594496 0 0 255 0 
-8.784098 -0.4093571 -10.40428 0.7457033 0.3667327 -0.5562674 0 0 255 0 
-8.776561 -0.4054546 -10.39497 0.7183673 0.3648164 -0.5923313 0 0 255 0 
5.064468 0.6774025 -1.630474 0.8084205 0.3690423 -0.4585456 0 0 255 0 
5.094757 0.5809193 -1.679035 0.7983514 0.3521152 -0.488517 0 0 255 0 
5.139141 0.6912727 -1.829994 0.5831925 0.7983147 0.150265 0 0 255 0 
5.035604 0.7889004 -2.041855 0.1237767 0.9855363 0.1157431 0 0 255 0 
4.726307 0.7359028 -2.196426 0.2318915 0.9603032 -0.1550616 0 0 255 0 
4.876444 0.8418083 -2.196896 0.01288201 0.9977193 0.06625542 0 0 255 0 
4.549301 0.700182 -2.177731 0.4592154 0.71347 -0.529227 0 0 255 0 
4.357834 0.7438259 -2.437939 0.1596126 0.966813 -0.1994899 0 0 255 0 
4.234055 0.7225819 -2.541546 -0.08333909 0.9582471 -0.2735266 0 0 255 0 
4.080652 0.8094273 -2.582722 0.6274551 0.3983985 -0.6690138 0 0 255 0 
3.997095 0.7597752 -2.680809 0.6558722 0.3202065 -0.6835929 0 0 255 0 
3.7659 0.7250519 -2.946434 0.6653814 0.344803 -0.662101 0 0 255 0 
3.601521 0.8791294 -3.125595 0.7913391 -0.1639859 -0.5889747 0 0 255 0 
3.494732 0.8750763 -3.246147 0.7273547 -0.2569939 -0.6363248 0 0 255 0 
3.328985 0.8685532 -3.41375 0.7452385 -0.2489659 -0.6185755 0 0 255 0 
3.011143 0.9191513 -3.581535 0.4695466 0.8822306 -0.03456047 0 0 255 0 
2.979769 0.8395176 -3.675278 0.2702191 0.9342788 -0.2326039 0 0 255 0 
2.923252 0.9182205 -3.682789 0.6815794 0.6550853 -0.3260559 0 0 255 0 
2.878517 0.8747768 -3.799427 0.5335284 0.7876958 -0.3080296 0 0 255 0 
2.791698 0.9394226 -3.869789 0.566173 0.7310709 -0.3807679 0 0 255 0 
2.70409 1.033794 -3.972965 0.7300236 0.6832876 -0.01352751 0 0 255 0 
2.559567 1.033792 -4.152603 0.7203428 0.6124497 0.3255926 0 0 255 0 
-1.891121 -1.352814 -3.973419 0.5064187 0.2240644 -0.8326669 0 0 255 0 
-1.904609 -1.519272 -4.024986 0.6305649 0.3944425 -0.668433 0 0 255 0 
-1.99852 -1.403137 -4.074955 0.6685366 0.3920403 -0.6319513 0 0 255 0 
-2.206026 -1.414211 -4.376759 0.8431849 0.3949998 -0.3647117 0 0 255 0 
-2.15345 -1.398346 -4.228802 0.6267576 0.3993683 -0.6690881 0 0 255 0 
-2.314565 -1.314421 -4.41671 0.735653 0.3456554 -0.5825266 0 0 255 0 
-2.440449 -1.372396 -4.517937 0.5976569 0.3580047 -0.7173831 0 0 255 0 
-2.558429 -1.405174 -4.618401 0.1689946 0.7912084 -0.5877334 0 0 255 0 
-2.710616 -1.363646 -4.789299 0.7147225 0.3655065 -0.5963023 0 0 255 0 
-2.802019 -1.239998 -4.836269 0.6748889 0.3574052 -0.6455891 0 0 255 0 
-2.805935 -1.379623 -4.907669 0.6509891 0.3499181 -0.6736249 0 0 255 0 
-3.081947 -1.286844 -5.144947 0.6562799 0.3854871 -0.6486108 0 0 255 0 
-3.178613 -1.337069 -5.259064 0.6191105 0.5197015 -0.5887369 0 0 255 0 
-3.254593 -1.206667 -5.280437 0.7218122 0.4875667 -0.4911877 0 0 255 0 
-3.44436 -1.265694 -5.474323 0.7460988 0.3441421 -0.5700027 0 0 255 0 
-3.542177 -1.290569 -5.592148 0.6891341 0.3539559 -0.6323043 0 0 255 0 
-3.634392 -1.173695 -5.639381 0.675186 0.1963753 -0.7110277 0 0 255 0 
-3.757889 -1.185852 -5.752609 0.5988365 0.4383978 -0.6702245 0 0 255 0 
-3.837805 -1.203396 -5.872784 0.9035646 0.09534079 -0.4177085 0 0 255 0 
-3.93681 -1.209267 -5.946182 0.5135024 0.1580394 -0.8434086 0 0 255 0 
-4.049249 -1.138441 -6.008926 0.6236352 0.6659413 -0.4093911 0 0 255 0 
-4.562568 -1.16637 -6.553978 0.5783694 0.33566 -0.7435197 0 0 255 0 
-4.665482 -1.059227 -6.591286 0.5654725 0.3553981 -0.7442665 0 0 255 0 
-4.902412 -1.097183 -6.865868 0.8047612 0.3322747 -0.4918866 0 0 255 0 
-4.962127 -0.9580021 -6.956995 0.8779284 0.396998 -0.2676469 0 0 255 0 
-5.077434 -1.009598 -7.054085 0.7489207 0.4613295 -0.4757029 0 0 255 0 
-5.178055 -1.073193 -7.157917 0.7163022 0.4031113 -0.569571 0 0 255 0 
-5.389364 -0.9686718 -7.343149 0.6870586 0.5045247 -0.5228804 0 0 255 0 
-5.409949 -0.9618073 -7.362921 0.8173134 0.325627 -0.4753582 0 0 255 0 
-5.537425 -1.010675 -7.454203 0.6364175 0.4501765 -0.6263497 0 0 255 0 
-5.634962 -1.051065 -7.565062 0.6072249 0.4211454 -0.6737315 0 0 255 0 
-5.730154 -0.9089146 -7.606766 0.574277 0.4687552 -0.6711744 0 0 255 0 
-5.827942 -0.9239063 -7.721811 0.7719101 0.2728252 -0.5742136 0 0 255 0 
-5.945935 -0.9591923 -7.828943 0.5939738 0.3947524 -0.7009747 0 0 255 0 
-6.20074 -0.9500904 -8.090126 0.7161062 0.3547483 -0.6011196 0 0 255 0 
-6.110611 -0.9280968 -7.967127 0.7901396 0.304365 -0.5320166 0 0 255 0 
-6.293265 -0.9744473 -8.211657 0.711594 0.3596754 -0.6035455 0 0 255 0 
-6.296921 -0.8389645 -8.137117 0.682915 0.2572592 -0.6836988 0 0 255 0 
-6.390674 -0.8564224 -8.25098 0.6701102 0.2175729 -0.709658 0 0 255 0 
-6.49575 -0.8796291 -8.367826 0.6954312 0.2579607 -0.6706949 0 0 255 0 
-6.603045 -0.9096794 -8.479412 0.6505197 0.2535527 -0.7159148 0 0 255 0 
-6.679186 -0.8220081 -8.508371 0.5915653 0.3185232 -0.7406704 0 0 255 0 
-6.78739 -0.8516998 -8.626537 0.6975553 0.343403 -0.6288814 0 0 255 0 
-6.894318 -0.8815269 -8.73741 0.6602224 0.3535426 -0.6626567 0 0 255 0 
-6.99826 -0.9073296 -8.851271 0.6523565 0.3579599 -0.668054 0 0 255 0 
-6.989127 -0.7602139 -8.784351 0.6675391 0.3580318 -0.6528439 0 0 255 0 
-7.189763 -0.845665 -9.054235 0.5495791 0.4232252 -0.720308 0 0 255 0 
-7.505783 -0.7352352 -9.255987 0.6191383 0.4020234 -0.67457 0 0 255 0 
-7.618871 -0.765274 -9.364479 0.6171495 0.3638199 -0.6976837 0 0 255 0 
-7.622528 -0.7638988 -9.530807 0.892715 0.4464067 -0.06148363 0 0 255 0 
-7.685822 -0.6881981 -9.497316 0.8052549 0.4803807 -0.3475601 0 0 255 0 
-8.014952 -0.6203651 -9.798424 0.8284458 0.3666576 0.4233668 0 0 255 0 
-8.368074 -0.7011814 -10.12409 0.5426254 0.1604359 -0.8245096 0 0 255 0 
-8.671299 -0.6581669 -10.42127 0.6740446 0.426374 -0.6032151 0 0 255 0 
-8.763038 -0.5440407 -10.47441 0.7688458 0.4591991 -0.4449859 0 0 255 0 
-8.753052 -0.6765442 -10.56076 0.7332438 0.4384118 -0.5197585 0 0 255 0 
-10.07122 -0.535408 -11.7395 0.7835866 0.359001 -0.5070592 0 0 255 0 
-10.10658 -0.3267517 -11.82784 0.9129842 0.1643182 0.3734421 0 0 255 0 
-10.07273 -0.1525192 -12.05254 0.8960988 0.2179501 0.3866588 0 0 255 0 
-10.06189 -0.3428173 -12.02819 0.9772723 0.2020055 -0.06427802 0 0 255 0 
-10.06189 -0.3428173 -12.02819 0.9772723 0.2020055 -0.06427802 0 0 255 0 
-9.934052 -0.03914452 -12.28432 0.4036903 0.9032454 0.1455363 0 0 255 0 
5.193344 0.4973774 -1.632557 0.6950377 0.5007986 -0.5158704 0 0 255 0 
5.137245 0.484087 -1.767178 0.3031457 0.8440907 -0.4422821 0 0 255 0 
4.761553 0.5510082 -2.12809 0.4276338 0.9022767 0.05499923 0 0 255 0 
4.860806 0.5701141 -2.056404 0.120241 0.9661877 0.2280883 0 0 255 0 
4.704552 0.6947746 -2.294983 0.4833758 0.8746909 0.03552249 0 0 255 0 
4.591866 0.7184353 -2.373024 0.3033786 0.8334845 -0.4618052 0 0 255 0 
4.375954 0.6889954 -2.57909 0.1501788 0.9569141 -0.2485182 0 0 255 0 
4.098961 0.6785545 -2.63699 0.6329885 0.5184348 -0.5749353 0 0 255 0 
4.061449 0.67132 -2.809547 0.09237246 0.9862986 -0.1366794 0 0 255 0 
3.877367 0.646368 -2.931171 0.2624518 0.92614 -0.2708953 0 0 255 0 
3.737539 0.6017246 -3.026054 0.6957926 0.4778882 -0.5361857 0 0 255 0 
3.658442 0.7285385 -3.062714 0.6825114 0.1593364 -0.7132954 0 0 255 0 
3.556547 0.7211781 -3.187336 0.821323 -0.003768533 -0.5704508 0 0 255 0 
3.378017 0.7098331 -3.333649 0.630335 0.3519598 -0.6919553 0 0 255 0 
3.281425 0.6897049 -3.437511 0.6480781 0.3984094 -0.649049 0 0 255 0 
2.940229 0.7555523 -3.835701 0.7932983 -0.2324015 -0.5627318 0 0 255 0 
2.83067 0.8441963 -4.022888 0.874095 -0.1628564 -0.4576401 0 0 255 0 
-1.998289 -1.545254 -4.144215 0.7076045 0.3655222 -0.6047217 0 0 255 0 
-1.891424 -1.647669 -4.103397 0.6085753 0.4324609 -0.6652917 0 0 255 0 
-2.137947 -1.544619 -4.298283 0.590523 0.3380546 -0.7328041 0 0 255 0 
-2.33712 -1.477558 -4.474323 0.4617587 0.5672645 -0.6819019 0 0 255 0 
-2.40584 -1.532619 -4.617928 0.6573381 0.7433607 0.1237791 0 0 255 0 
-2.710873 -1.50561 -4.860695 0.7525168 0.2447749 -0.611395 0 0 255 0 
-2.804364 -1.510725 -4.985355 0.7195671 0.1854903 -0.669191 0 0 255 0 
-3.079777 -1.430788 -5.212269 0.620372 0.3384575 -0.7075207 0 0 255 0 
-3.167429 -1.475006 -5.328434 0.7508782 0.3022748 -0.5872067 0 0 255 0 
-3.249689 -1.334387 -5.360207 0.6450335 0.3519253 -0.6782919 0 0 255 0 
-3.358866 -1.389191 -5.463207 0.6472326 0.4582484 -0.6091785 0 0 255 0 
-3.549501 -1.433325 -5.659988 0.5826603 0.3881461 -0.7140379 0 0 255 0 
-3.426924 -1.387295 -5.56834 0.7044041 0.4720873 -0.5300459 0 0 255 0 
-3.639603 -1.31525 -5.709942 0.6999803 0.4163338 -0.5802528 0 0 255 0 
-3.7444 -1.36315 -5.818581 0.5231627 0.5167832 -0.6776689 0 0 255 0 
-4.477737 -1.303482 -6.507198 0.7752867 0.365287 -0.5152616 0 0 255 0 
-4.678945 -1.33643 -6.736515 0.6351252 0.3788557 -0.6731145 0 0 255 0 
-4.683146 -1.204433 -6.659828 0.5885501 0.3420211 -0.7325507 0 0 255 0 
-4.868316 -1.206202 -6.974339 0.8859337 0.3978984 -0.2383249 0 0 255 0 
-5.060828 -1.150995 -7.11812 0.6043064 0.5837899 -0.5422207 0 0 255 0 
-5.159362 -1.199484 -7.236544 0.5899147 0.4731611 -0.6543076 0 0 255 0 
-5.389615 -1.113241 -7.37891 0.5627787 0.3869049 -0.7304689 0 0 255 0 
-5.527863 -1.147953 -7.523239 0.5662175 0.3585369 -0.7421919 0 0 255 0 
-5.629643 -1.158504 -7.624163 0.6718642 0.4135775 -0.6144527 0 0 255 0 
-5.726121 -1.051805 -7.672871 0.6588584 0.4393848 -0.6106117 0 0 255 0 
-5.68759 -1.161474 -7.760035 0.8404937 0.3126666 -0.442503 0 0 255 0 
-5.89625 -1.124628 -7.881058 0.5989466 0.322091 -0.7331573 0 0 255 0 
-5.804172 -1.073673 -7.796774 0.5221052 0.6211264 -0.5844728 0 0 255 0 
-6.013606 -1.036873 -7.917675 0.5336185 0.4652919 -0.7062255 0 0 255 0 
-6.010612 -1.180223 -7.986145 0.4974021 0.41342 -0.7626762 0 0 255 0 
-6.198731 -1.087023 -8.163822 0.7370114 0.3480365 -0.579383 0 0 255 0 
-6.107649 -1.068378 -8.028282 0.7503311 0.421783 -0.5090209 0 0 255 0 
-6.300084 -1.119074 -8.280945 0.622088 0.3931293 -0.6770941 0 0 255 0 
-6.409354 -1.127501 -8.386549 0.6873509 0.4080449 -0.6008724 0 0 255 0 
-6.399308 -0.9948807 -8.325802 0.6538729 0.3247329 -0.6833727 0 0 255 0 
-6.501663 -1.020626 -8.439928 0.6509597 0.3644423 -0.665907 0 0 255 0 
-6.602115 -1.069704 -8.551699 0.5649496 0.4592894 -0.6854813 0 0 255 0 
-6.788755 -0.9877224 -8.702066 0.6941475 0.411979 -0.5902824 0 0 255 0 
-6.880085 -1.021128 -8.819199 0.7131874 0.3912537 -0.5816232 0 0 255 0 
-6.997618 -1.042309 -8.927263 0.2789658 0.6035512 -0.74693 0 0 255 0 
-7.225271 -1.022133 -9.115721 0.7589168 0.3923949 -0.519684 0 0 255 0 
-7.487119 -1.005888 -9.373623 0.6299004 0.4012739 -0.6649839 0 0 255 0 
-7.585908 -0.8921871 -9.417711 0.7433013 0.3159187 -0.589659 0 0 255 0 
-7.631269 -0.9298286 -9.580669 0.8000013 0.4353624 -0.4128651 0 0 255 0 
-7.84658 -0.8903885 -9.742353 0.7252533 0.4090469 -0.5537935 0 0 255 0 
-7.739318 -0.8414364 -9.629633 0.568167 0.55829 -0.6045651 0 0 255 0 
-7.940895 -0.9281483 -9.858004 0.6394402 0.4549557 -0.6197827 0 0 255 0 
-7.945533 -0.7861671 -9.792616 0.7381732 0.4008088 -0.5426352 0 0 255 0 
-8.035352 -0.8186646 -9.908215 0.7707733 0.2880553 -0.5682709 0 0 255 0 
-8.142032 -0.8680935 -10.01767 0.5632731 0.4134533 -0.7153875 0 0 255 0 
-8.24929 -0.8988819 -10.12668 0.5593588 0.4045572 -0.7234988 0 0 255 0 
-8.368815 -0.82687 -10.21092 0.6174884 0.2802124 -0.7349751 0 0 255 0 
-8.467742 -0.876627 -10.328 0.7434495 0.4415718 -0.5022913 0 0 255 0 
-8.664155 -0.789856 -10.50464 0.7530989 0.3872918 -0.5318332 0 0 255 0 
-8.75065 -0.8197384 -10.63068 0.7338961 0.3846651 -0.5598472 0 0 255 0 
-9.578616 -0.7352104 -11.41568 0.9058285 0.2303835 -0.3555259 0 0 255 0 
-10.0286 -0.4933281 -11.93892 0.9262109 0.1719146 0.3355279 0 0 255 0 
-9.897486 -0.4330883 -12.10417 0.9314781 0.2628582 0.2515018 0 0 255 0 
-9.909124 -0.2544498 -12.19897 0.9203936 0.2918973 0.2601371 0 0 255 0 
5.310453 0.4454517 -1.617558 0.647648 0.7300074 -0.2182691 0 0 255 0 
5.270863 0.4604797 -1.780121 0.001475841 0.9744545 -0.2245811 0 0 255 0 
5.137878 0.529747 -2.084038 0.0688318 0.6377851 -0.7671325 0 0 255 0 
4.961319 0.4337635 -2.073082 0.2918513 0.7335594 -0.6137695 0 0 255 0 
4.828375 0.5599194 -2.282185 0.2684919 0.3207424 -0.9083148 0 0 255 0 
4.531919 0.5158672 -2.37273 0.5479389 0.272932 -0.7907408 0 0 255 0 
4.40037 0.4826851 -2.555878 0.1640239 0.3521334 -0.9214649 0 0 255 0 
4.303707 0.5004063 -2.647854 0.1935094 0.3836616 -0.9029712 0 0 255 0 
4.236515 0.5550766 -2.773106 0.3266934 0.4963428 -0.8043106 0 0 255 0 
4.153395 0.5945377 -2.731937 0.4275272 0.700482 -0.5714412 0 0 255 0 
4.123377 0.5662994 -2.867504 0.5011584 0.5511357 -0.6671505 0 0 255 0 
4.003021 0.573946 -2.939655 0.321409 0.8063 -0.496564 0 0 255 0 
3.88924 0.5837688 -3.038673 0.2181585 0.9153055 -0.3385595 0 0 255 0 
3.764853 0.4846401 -3.095966 0.700324 0.385145 -0.6010063 0 0 255 0 
3.677662 0.5851574 -3.153484 0.3089876 0.9037041 -0.296385 0 0 255 0 
3.472038 0.6068058 -3.300652 0.6390174 0.4001353 -0.656924 0 0 255 0 
3.612831 0.5664749 -3.311581 0.08768988 0.992233 -0.08823383 0 0 255 0 
3.37731 0.5889053 -3.406292 0.6656161 0.3410961 -0.6637826 0 0 255 0 
3.280766 0.565733 -3.511177 0.6466907 0.3710801 -0.6664006 0 0 255 0 
3.190006 0.5451012 -3.618752 0.6448469 0.383329 -0.6612347 0 0 255 0 
2.515506 0.731636 -4.262707 0.4592778 0.1317921 -0.8784614 0 0 255 0 
-1.974304 -1.687754 -4.209591 0.7703725 0.4127374 -0.4859768 0 0 255 0 
-1.857141 -1.783106 -4.181751 0.5635357 0.6172031 -0.5490788 0 0 255 0 
-1.856079 -1.769011 -4.171886 0.5249143 0.5770921 -0.6256434 0 0 255 0 
-2.068022 -1.713045 -4.393955 0.6290914 0.6783605 -0.3795658 0 0 255 0 
-2.243918 -1.545424 -4.585648 0.5516382 0.7283863 -0.4063844 0 0 255 0 
-2.131798 -1.611605 -4.513996 0.7592546 0.6007638 -0.2502309 0 0 255 0 
-3.034353 -1.560833 -5.233856 0.6692758 0.2411206 -0.7028021 0 0 255 0 
-3.087188 -1.596457 -5.368469 0.7244743 0.5005541 -0.4739018 0 0 255 0 
-3.338437 -1.565245 -5.53677 0.5979319 0.359351 -0.7164801 0 0 255 0 
-3.415443 -1.50769 -5.653931 0.6298184 0.5055789 -0.5896756 0 0 255 0 
-3.548236 -1.565861 -5.736084 0.6285816 0.4166295 -0.6567379 0 0 255 0 
-3.647514 -1.450184 -5.775021 0.6845444 0.3297823 -0.6501098 0 0 255 0 
-3.639654 -1.589966 -5.854374 0.7436064 0.3462944 -0.571952 0 0 255 0 
-4.463605 -1.428572 -6.593231 0.5917285 0.3207691 -0.7395696 0 0 255 0 
-4.687956 -1.475948 -6.810196 0.6496241 0.3318053 -0.684027 0 0 255 0 
-4.582997 -1.456146 -6.69519 0.598201 0.3330538 -0.7288556 0 0 255 0 
-4.811593 -1.345922 -6.88459 0.7801229 0.3760405 -0.5000012 0 0 255 0 
-4.84579 -1.35009 -7.029947 0.8512298 0.4046218 -0.3341974 0 0 255 0 
-4.941367 -1.252531 -7.094112 0.699466 0.5450168 -0.4622804 0 0 255 0 
-5.079069 -1.322609 -7.178562 0.6962082 0.3513011 -0.6260046 0 0 255 0 
-5.159874 -1.348196 -7.298038 0.6177639 0.2904243 -0.7307671 0 0 255 0 
-5.248087 -1.232973 -7.350584 0.6889902 0.3526922 -0.6331674 0 0 255 0 
-5.270555 -1.35915 -7.409727 0.7748275 0.2423256 -0.5838843 0 0 255 0 
-5.262789 -1.382599 -7.41715 0.6133986 0.2844899 -0.7367544 0 0 255 0 
-5.388963 -1.29604 -7.445797 0.07257256 0.7435416 -0.6647406 0 0 255 0 
-5.385899 -1.259138 -7.447601 0.4548933 0.4907472 -0.7431273 0 0 255 0 
-5.520123 -1.253654 -7.586809 0.6719757 0.359328 -0.6475579 0 0 255 0 
-5.632181 -1.296402 -7.693214 0.6513582 0.3928652 -0.6491448 0 0 255 0 
-5.713508 -1.310884 -7.817734 0.7824271 0.324038 -0.5317954 0 0 255 0 
-5.813848 -1.209444 -7.859995 0.6242231 0.4734666 -0.621429 0 0 255 0 
-6.106254 -1.200954 -8.113363 0.7657017 0.3329104 -0.5503379 0 0 255 0 
-6.184919 -1.216763 -8.249374 0.8290269 0.3391574 -0.4446187 0 0 255 0 
-6.296902 -1.254681 -8.355457 0.6563119 0.265564 -0.7062085 0 0 255 0 
-6.400535 -1.272848 -8.45591 0.5920542 0.325927 -0.737051 0 0 255 0 
-6.503702 -1.171249 -8.501518 0.6651191 0.4704707 -0.5798917 0 0 255 0 
-6.682054 -1.24268 -8.736494 0.5922329 0.4836416 -0.6444774 0 0 255 0 
-6.589852 -1.205849 -8.623936 0.708241 0.4079839 -0.5761456 0 0 255 0 
-6.678063 -1.113344 -8.651247 0.7446053 0.4676403 -0.4763154 0 0 255 0 
-6.772749 -1.117094 -8.77857 0.6449701 0.3248337 -0.6917341 0 0 255 0 
-7.019716 -1.166275 -9.032921 0.516378 0.3191605 -0.7946627 0 0 255 0 
-7.102435 -1.180227 -9.092016 0.6507396 0.4736662 -0.5934466 0 0 255 0 
-7.157351 -1.190826 -9.1271 0.7750133 0.3554928 -0.5224752 0 0 255 0 
-7.481416 -1.165428 -9.438282 0.6274889 0.3487503 -0.6961539 0 0 255 0 
-7.533016 -1.028107 -9.522709 0.8853599 0.4057826 -0.2268863 0 0 255 0 
-7.630547 -1.093433 -9.649263 0.6479933 0.3583385 -0.6720849 0 0 255 0 
-7.824209 -1.018427 -9.819338 0.651589 0.4758781 -0.5907376 0 0 255 0 
-7.698472 -0.9638004 -9.705027 0.6591702 0.5845807 -0.4730318 0 0 255 0 
-7.992443 -1.082378 -9.984289 0.6875846 0.1591591 -0.7084456 0 0 255 0 
-7.94548 -1.075155 -9.936312 0.7004726 0.3844807 -0.6012587 0 0 255 0 
-8.039574 -0.970665 -9.971466 0.6362849 0.4606691 -0.6188101 0 0 255 0 
-8.128378 -0.9964848 -10.10079 0.5614915 0.4100101 -0.7187614 0 0 255 0 
-8.374327 -0.981741 -10.27154 0.6327164 0.4023845 -0.6616316 0 0 255 0 
-8.475561 -1.033606 -10.38767 0.7754749 0.6232728 -0.1008428 0 0 255 0 
-8.578453 -0.9126415 -10.44949 0.7796013 0.284941 -0.5577008 0 0 255 0 
-8.656605 -0.9547901 -10.57824 0.8916677 0.1755436 -0.4172682 0 0 255 0 
-9.147907 -0.9518394 -11.07509 0.8340959 0.278581 -0.476105 0 0 255 0 
-9.244337 -0.8233261 -11.11545 0.6429094 0.3945749 -0.6564891 0 0 255 0 
-9.373497 -0.8463745 -11.24285 0.6696403 0.2860018 -0.6854086 0 0 255 0 
-9.470554 -0.866087 -11.37916 0.671404 0.1588421 -0.7238689 0 0 255 0 
-9.756472 -0.8396549 -11.52562 0.5156016 0.6272247 -0.5837337 0 0 255 0 
-9.873444 -0.594471 -11.99828 0.92851 0.283645 0.2396146 0 0 255 0 
-9.891937 -0.5956535 -12.15822 0.898725 0.3911463 -0.1982344 0 0 255 0 
-9.961843 -0.4780388 -12.23511 0.8627013 0.4613152 -0.2072059 0 0 255 0 
5.370916 0.4242611 -1.864426 0.8251024 0.5502268 -0.128281 0 0 255 0 
4.628307 0.4087105 -2.360989 0.5484913 0.7076079 -0.4454759 0 0 255 0 
4.349703 0.3155537 -2.589817 0.4926071 0.6109434 -0.6197465 0 0 255 0 
4.26166 0.3608475 -2.704014 0.4728857 0.4172372 -0.7760749 0 0 255 0 
4.076736 0.430582 -2.938873 0.7606878 0.6150895 0.20741 0 0 255 0 
3.894768 0.4443665 -3.109428 0.4954538 0.5135852 -0.7005395 0 0 255 0 
3.993183 0.4910145 -3.051224 0.3062218 0.850507 -0.4276275 0 0 255 0 
3.828617 0.4478855 -3.248116 0.6022116 0.7130426 -0.3590417 0 0 255 0 
3.782377 0.3716831 -3.179951 0.3898126 0.5135508 -0.764403 0 0 255 0 
3.692961 0.5142059 -3.305279 0.3287829 0.8366132 -0.4381555 0 0 255 0 
3.647947 0.4708786 -3.438011 0.4503731 0.7269681 -0.5183449 0 0 255 0 
3.520372 0.5369949 -3.413765 0.1742334 0.9522959 -0.2505499 0 0 255 0 
3.643879 0.5667362 -3.505314 -0.1124497 0.9802892 -0.1624439 0 0 255 0 
3.428143 0.5311489 -3.532448 0.1531511 0.9879599 -0.0218921 0 0 255 0 
3.098404 0.5206013 -3.724312 0.6350827 0.3159389 -0.7048774 0 0 255 0 
2.998319 0.4782658 -3.876461 0.6944382 0.5022725 -0.5152454 0 0 255 0 
2.912682 0.4986343 -4.004822 0.6104447 0.7515318 -0.2501141 0 0 255 0 
2.698757 0.5056782 -4.094894 0.7543911 0.03576545 -0.6554499 0 0 255 0 
-1.730163 -1.836199 -4.134853 0.1752572 0.8965212 -0.4068593 0 0 255 0 
-1.766519 -1.83746 -4.283501 0.1784296 0.975817 -0.1262718 0 0 255 0 
-1.982455 -1.818571 -4.309097 0.8283486 0.1125093 -0.5487974 0 0 255 0 
-2.090025 -1.753744 -4.57066 0.4225133 0.8220806 -0.381663 0 0 255 0 
-1.99078 -1.817415 -4.474991 0.7273664 0.6308101 -0.2702152 0 0 255 0 
-2.975406 -1.6737 -5.305157 0.5487782 0.6437501 -0.5333186 0 0 255 0 
-2.820274 -1.687408 -5.298882 0.5558968 0.6361854 -0.5350204 0 0 255 0 
-3.05481 -1.753513 -5.413017 0.4335718 0.8257241 -0.3608238 0 0 255 0 
-3.254718 -1.673096 -5.441257 0.8863143 0.1416847 -0.4408775 0 0 255 0 
-3.383812 -1.634724 -5.67918 0.8060789 0.4884589 0.334133 0 0 255 0 
-3.275272 -1.700432 -5.590042 0.7040149 0.7029998 -0.1007688 0 0 255 0 
-3.44652 -1.730175 -5.77565 0.7100454 0.6292607 0.3160155 0 0 255 0 
-4.469109 -1.551111 -6.666183 0.551091 0.3407711 -0.7616916 0 0 255 0 
-4.672836 -1.614439 -6.884922 0.6459369 0.3586336 -0.673904 0 0 255 0 
-4.580411 -1.582384 -6.779003 0.6110668 0.4054434 -0.6798623 0 0 255 0 
-4.760195 -1.500017 -6.946014 0.8113015 0.3669398 -0.4551318 0 0 255 0 
-4.845409 -1.5235 -7.073084 0.7440406 0.3644909 -0.5599556 0 0 255 0 
-4.938683 -1.418627 -7.133339 0.6315476 0.4454278 -0.6346191 0 0 255 0 
-5.078812 -1.487175 -7.255203 0.6899736 0.3154627 -0.6514752 0 0 255 0 
-5.177203 -1.486704 -7.373878 0.6228055 0.3793114 -0.6842769 0 0 255 0 
-5.394114 -1.398811 -7.526482 0.6385248 0.3082219 -0.7051842 0 0 255 0 
-5.293443 -1.532116 -7.48691 0.6808652 0.3160861 -0.6606913 0 0 255 0 
-5.287958 -1.520124 -7.481361 0.6151509 0.3329236 -0.7146682 0 0 255 0 
-5.42249 -1.497992 -7.604736 0.7223737 0.3973932 -0.5659102 0 0 255 0 
-5.52462 -1.398552 -7.654041 0.6546324 0.3862421 -0.6498246 0 0 255 0 
-5.616872 -1.422897 -7.772636 0.6611433 0.3920543 -0.6396735 0 0 255 0 
-5.723284 -1.459892 -7.883907 0.7043855 0.4669859 -0.5345702 0 0 255 0 
-5.873623 -1.473335 -8.011917 0.8307098 0.3673379 -0.4183097 0 0 255 0 
-5.798406 -1.333389 -7.947634 0.6788476 0.4411969 -0.5869498 0 0 255 0 
-6.084444 -1.321453 -8.199326 0.6337607 0.4652416 -0.6179786 0 0 255 0 
-6.18746 -1.372438 -8.318604 0.6481225 0.3529611 -0.6748003 0 0 255 0 
-6.285604 -1.397495 -8.408009 0.7409363 0.3272716 -0.5864357 0 0 255 0 
-6.389498 -1.409321 -8.527431 0.6238478 0.3319292 -0.7075562 0 0 255 0 
