ply
format ascii 1.0
comment VCGLIB generated
element vertex 666
property float x
property float y
property float z
property float nx
property float ny
property float nz
property uchar red
property uchar green
property uchar blue
property uchar alpha
element face 0
property list uchar int vertex_indices
end_header
1.601429 2.76647 -5.760114 0.04298878 0.4903083 0.8704876 0 0 255 0 
1.173729 2.856335 -5.337758 -0.1027068 -0.4020102 0.9098572 0 0 255 0 
1.018562 2.813722 -5.352324 -0.01622239 -0.4320897 0.9016846 0 0 255 0 
-2.432144 2.852338 -3.674211 0.8441315 -0.4102765 0.3451315 0 0 255 0 
-2.384754 2.716458 -3.166802 0.7824669 -0.5151473 0.3498131 0 0 255 0 
-2.475086 2.782829 -3.027368 0.7689209 -0.3002766 0.5644416 0 0 255 0 
1.375771 3.067756 -5.668231 0.7094311 -0.3514089 0.6109172 0 0 255 0 
1.051033 2.96577 -5.291312 -0.0790472 -0.3872648 0.9185736 0 0 255 0 
-2.145412 2.967619 -3.813872 0.4694172 -0.3133889 0.8254901 0 0 255 0 
-2.27676 2.88729 -3.755544 0.8738008 -0.2002039 0.4431593 0 0 255 0 
-2.456554 2.960446 -3.013801 0.6686422 -0.3087699 0.6764452 0 0 255 0 
-3.552494 3.092631 -4.742526 0.4662119 -0.3055333 0.8302383 0 0 255 0 
-4.240959 3.14932 -5.846034 -0.3916829 -0.6396517 0.661385 0 0 255 0 
-5.830048 3.004881 -2.300618 -0.3503819 0.4553679 0.8184572 0 0 255 0 
-5.788326 2.865535 -2.308402 -0.3757345 0.5140153 0.7711106 0 0 255 0 
-6.21944 2.976986 -2.300632 -0.3210324 -0.365392 0.8737437 0 0 255 0 
1.403248 3.179889 -5.42431 -0.4454395 -0.3203839 0.8360245 0 0 255 0 
1.011013 3.141322 -5.216956 -0.2326917 -0.3902695 0.8908115 0 0 255 0 
0.8528824 3.076962 -5.271899 -0.04375225 -0.379158 0.9242975 0 0 255 0 
-1.718281 3.147876 -4.015613 -0.1823841 -0.04256444 0.9823055 0 0 255 0 
-2.036274 3.097956 -4.046069 0.6158233 -0.5784065 0.5349844 0 0 255 0 
-4.010574 3.120557 -3.107984 -0.03309068 0.1911404 0.9810044 0 0 255 0 
-5.208824 3.131572 -4.149135 0.6976849 -0.411431 0.5864819 0 0 255 0 
1.427059 3.342334 -5.402648 -0.6067131 -0.2611265 0.7508076 0 0 255 0 
1.1754 3.333415 -5.215751 -0.0404008 -0.4198658 0.9066863 0 0 255 0 
-2.538258 3.181885 -2.729428 0.6570596 -0.2405719 0.7144212 0 0 255 0 
-3.916065 3.296237 -3.146152 0.405803 0.2159164 0.8880903 0 0 255 0 
-4.108089 3.263856 -2.984569 0.9038711 -0.1174719 0.4113614 0 0 255 0 
-4.150406 3.293979 -3.083583 0.03904328 0.3034994 0.9520319 0 0 255 0 
-5.174366 3.386653 -4.108073 0.6630355 -0.4752935 0.5783427 0 0 255 0 
-7.003674 3.227892 -2.462667 0.8501261 0.09673207 0.517619 0 0 255 0 
-7.09753 3.33569 -2.34093 0.8632101 0.1021832 0.4943965 0 0 255 0 
-7.030766 3.270086 -2.033931 0.9446932 0.1533776 0.2898798 0 0 255 0 
2.002865 3.37051 -4.900641 -0.1203023 -0.3517017 0.9283497 0 0 255 0 
2.145016 3.411541 -4.820443 -0.5236968 -0.4735209 0.7081809 0 0 255 0 
1.311653 3.420333 -5.315772 -0.05349672 -0.3669659 0.9286946 0 0 255 0 
-1.453621 3.497293 -4.178779 0.6345687 -0.2987882 0.712775 0 0 255 0 
-1.559669 3.409553 -4.135886 0.6918451 -0.2445024 0.6793881 0 0 255 0 
-1.785366 3.396102 -4.004344 0.1360012 -0.5734197 0.8078941 0 0 255 0 
-2.462463 3.347531 -2.676501 0.4425912 -0.5932223 0.6724581 0 0 255 0 
-3.471302 3.568047 -4.790435 0.7269068 -0.2685429 0.6320533 0 0 255 0 
-3.912354 3.427563 -3.243901 0.8758266 -0.08726797 0.4746714 0 0 255 0 
-5.144516 3.451975 -4.208169 0.3408661 -0.7966819 0.4991079 0 0 255 0 
-5.13596 3.543483 -4.0337 0.3689159 -0.3857085 0.8456534 0 0 255 0 
-6.008465 3.478697 -3.870742 0.3099998 0.6029927 0.7350515 0 0 255 0 
1.961479 3.627277 -4.944316 0.6176761 -0.4691819 0.6311454 0 0 255 0 
1.89069 3.477028 -4.910933 -0.05595207 -0.3687534 0.9278424 0 0 255 0 
1.768066 3.578043 -4.884786 -0.1293426 -0.4065985 0.9044046 0 0 255 0 
1.376743 3.541926 -4.831252 -0.05408198 -0.4390508 0.8968327 0 0 255 0 
-2.250134 3.58114 -2.911639 0.69603 -0.3208108 0.6423573 0 0 255 0 
-2.516918 3.55571 -2.560869 0.02583349 -0.3941791 0.9186709 0 0 255 0 
-3.683071 3.616216 -3.658916 0.8684179 -0.3817105 0.3164631 0 0 255 0 
-3.811867 3.506308 -3.389153 0.8521517 -0.3293487 0.4066533 0 0 255 0 
-3.893826 3.573824 -3.22058 0.7962185 -0.2472403 0.5521852 0 0 255 0 
-3.968906 3.594106 -3.17534 0.02502033 -0.2926283 0.9558995 0 0 255 0 
-5.245647 3.612737 -3.892396 0.4851745 -0.4601836 0.7435295 0 0 255 0 
-5.997898 3.643242 -3.847552 0.7691081 0.4239056 0.4783067 0 0 255 0 
-5.902664 3.465461 -2.072419 0.4365301 -0.7950017 0.4212047 0 0 255 0 
-6.044292 3.501414 -1.915925 0.4749396 -0.7791696 0.4090554 0 0 255 0 
-6.224133 3.49829 -1.951396 -0.2894429 -0.6509116 0.7018102 0 0 255 0 
-6.188412 3.538057 -1.766526 -0.07674074 -0.8451065 0.5290609 0 0 255 0 
2.12299 3.722795 -4.841903 0.2446315 -0.4128096 0.8773508 0 0 255 0 
1.98093 3.768813 -4.793681 0.5914773 -0.5151659 0.6202902 0 0 255 0 
1.823391 3.733083 -4.846023 -0.1144585 -0.4284154 0.8963031 0 0 255 0 
1.326794 3.624381 -4.479552 -0.03510025 -0.3695028 0.9285662 0 0 255 0 
1.307945 3.760922 -4.482032 -0.5101896 -0.584867 0.6305842 0 0 255 0 
1.261425 3.755776 -4.51765 -0.2086296 -0.3475702 0.9141493 0 0 255 0 
1.059994 3.763224 -4.622031 0.2765076 -0.7440693 0.608197 0 0 255 0 
-1.440662 3.659005 -4.063609 0.4317632 -0.0988121 0.8965583 0 0 255 0 
-1.558281 3.743195 -4.06549 0.755129 0.1056804 0.6470017 0 0 255 0 
-1.669571 3.648715 -3.882588 0.4714996 -0.2357129 0.8497811 0 0 255 0 
-3.467838 3.768775 -4.768525 0.7976131 -0.3980662 0.4531625 0 0 255 0 
-3.75663 3.671905 -3.448863 0.8500102 -0.3359344 0.4057482 0 0 255 0 
-3.833454 3.67925 -3.227391 0.4323361 -0.3870247 0.8144313 0 0 255 0 
-4.158638 3.653849 -3.135619 0.1254464 0.4481537 0.8851115 0 0 255 0 
-5.213829 3.775185 -3.897632 0.4475321 -0.03736578 0.8934869 0 0 255 0 
-5.565628 3.718155 -1.807496 0.4579999 -0.8216261 0.3393624 0 0 255 0 
-5.827183 3.617499 -1.948428 0.4629395 -0.788119 0.4056548 0 0 255 0 
-6.005302 3.665382 -1.937013 -0.4820769 -0.1328713 0.8659952 0 0 255 0 
-6.174557 3.634089 -1.810931 -0.00567244 -0.7977033 0.6030234 0 0 255 0 
-6.455948 3.639936 -1.868258 0.2136518 -0.8871496 0.4090464 0 0 255 0 
1.850826 3.886062 -4.75925 -0.06095243 -0.3120907 0.9480957 0 0 255 0 
1.59383 3.881408 -4.620965 -0.2104771 -0.16109 0.9642352 0 0 255 0 
1.635796 3.884621 -4.405776 0.7805038 -0.292425 0.5525414 0 0 255 0 
1.477245 3.807592 -4.290137 0.3279915 -0.5011802 0.8007745 0 0 255 0 
1.359592 3.885429 -4.175204 -0.2555045 -0.806486 0.533196 0 0 255 0 
1.105366 3.855142 -4.17028 -0.2617026 -0.79358 0.5493113 0 0 255 0 
-3.316277 4.040229 -4.889018 0.7173171 -0.4596199 0.5236474 0 0 255 0 
-3.761417 3.971712 -4.070624 0.8524276 0.1785319 0.4914205 0 0 255 0 
-3.783474 3.865157 -3.47354 0.7910492 0.2918277 0.5376589 0 0 255 0 
-4.031013 3.921242 -3.295871 0.2009761 0.7708752 0.6044505 0 0 255 0 
-4.206509 3.823553 -3.159507 0.574644 0.5370446 0.6175501 0 0 255 0 
-5.108265 4.051465 -4.207406 0.944591 -0.1390057 0.2973634 0 0 255 0 
-5.162868 3.949913 -4.089 0.9423383 -0.1600811 0.2938927 0 0 255 0 
-5.152828 4.037385 -3.895953 0.8078058 -0.2853076 0.515801 0 0 255 0 
-5.380955 3.89814 -3.837651 -0.01231265 -0.5430408 0.8396167 0 0 255 0 
-5.512295 3.944379 -3.929122 0.03173015 -0.5765131 0.8164716 0 0 255 0 
-6.046452 3.949408 -3.739148 0.1368496 -0.7335399 0.6657267 0 0 255 0 
-5.47657 3.865565 -1.657241 0.1366683 -0.9007999 0.4121671 0 0 255 0 
-5.725266 3.760262 -1.717999 0.5043032 -0.798799 0.3280216 0 0 255 0 
1.740108 3.962339 -4.667691 -0.05260924 -0.3596126 0.9316173 0 0 255 0 
1.518635 3.964556 -4.31438 -0.02409747 -0.4708853 0.8818652 0 0 255 0 
0.9820595 3.913163 -4.03287 -0.1686667 -0.7644105 0.6222754 0 0 255 0 
1.036148 3.911138 -3.994636 -0.2251266 -0.7572826 0.6130588 0 0 255 0 
0.9605064 3.906696 -3.501243 -0.155682 -0.8474608 0.5075163 0 0 255 0 
0.8546257 3.958423 -3.28855 -0.3171774 -0.7429931 0.5893718 0 0 255 0 
-3.297878 4.202145 -4.881652 0.7457778 -0.3134286 0.5878578 0 0 255 0 
-3.215473 4.142306 -5.009559 0.7607346 -0.3134802 0.5683419 0 0 255 0 
-3.401272 4.101147 -4.774486 0.9083328 -0.2215561 0.3547464 0 0 255 0 
-3.657501 4.126766 -4.607402 0.09885642 -0.8441096 0.5269784 0 0 255 0 
-3.500011 4.121915 -4.450435 0.1074126 -0.5562587 0.8240376 0 0 255 0 
-3.77034 4.179296 -4.141444 0.845657 0.04211387 0.5320629 0 0 255 0 
-3.742706 4.00983 -3.716346 0.89978 0.2428988 0.3624853 0 0 255 0 
-3.876926 4.033286 -3.508897 0.6055586 0.6091115 0.5121351 0 0 255 0 
-5.061543 4.178094 -4.33464 0.6421312 -0.6994691 0.3137053 0 0 255 0 
-5.103779 4.205804 -4.174861 0.8466775 -0.318913 0.4259484 0 0 255 0 
-5.606724 4.071854 -3.792535 -0.08150925 -0.7776938 0.6233362 0 0 255 0 
-5.864113 4.086123 -4.002444 0.02628973 -0.6080516 0.7934619 0 0 255 0 
2.114605 4.073277 -4.452685 -0.06533086 -0.04646205 0.9967814 0 0 255 0 
1.267262 4.068522 -3.575067 -0.2473314 -0.6482503 0.7201385 0 0 255 0 
1.085545 4.027402 -3.49039 -0.3729124 -0.5178071 0.7699427 0 0 255 0 
1.029942 4.029632 -3.633666 -0.1806241 -0.8150417 0.5505283 0 0 255 0 
0.9083023 4.109836 -3.202724 -0.3530223 -0.6876386 0.634452 0 0 255 0 
0.1825905 4.131467 -4.183635 0.5444443 0.4590248 0.7020526 0 0 255 0 
-3.106838 4.348126 -4.530467 0.2329528 -0.891099 0.3894551 0 0 255 0 
-3.366463 4.251347 -4.658061 0.813906 -0.2631924 0.5179634 0 0 255 0 
-3.355968 4.245382 -4.515834 0.6670362 -0.3994982 0.6288589 0 0 255 0 
-3.813633 4.311505 -4.165132 0.5345654 -0.2537358 0.8061373 0 0 255 0 
-3.823887 4.339569 -4.155849 0.492138 0.2312407 0.8392426 0 0 255 0 
-4.776234 4.375258 -4.581332 0.31781 -0.5474915 0.7741123 0 0 255 0 
-4.996784 4.295321 -4.310386 0.843972 0.2433081 0.4780301 0 0 255 0 
-5.032162 4.345016 -3.922839 0.7886124 -0.1960279 0.5828072 0 0 255 0 
-5.127819 4.237934 -3.862041 0.844182 -0.2747529 0.4602908 0 0 255 0 
-5.333946 4.228366 -3.628037 0.0005971193 -0.2880131 0.9576269 0 0 255 0 
-5.594715 4.24404 -3.555827 -0.006065756 -0.5760365 0.8174017 0 0 255 0 
-5.723927 4.352681 -3.755687 -0.4825235 -0.01164105 0.8758055 0 0 255 0 
-5.837685 4.237699 -3.890216 -0.4831481 -0.232353 0.8441449 0 0 255 0 
1.751633 4.233609 -4.217158 0.2344376 -0.8798358 0.4134346 0 0 255 0 
1.077118 4.200896 -3.227653 -0.4040192 -0.6367236 0.6567737 0 0 255 0 
-3.003017 4.420541 -4.655387 -0.03130007 -0.5675924 0.8227144 0 0 255 0 
-3.031155 4.487327 -4.355964 0.1634891 -0.3585315 0.9190906 0 0 255 0 
-3.16095 4.433088 -4.323108 -0.05552498 -0.3532825 0.9338678 0 0 255 0 
-3.32383 4.393289 -4.445331 0.004907072 -0.3910303 0.9203649 0 0 255 0 
-3.540211 4.403553 -4.297828 0.05700502 -0.419393 0.9060128 0 0 255 0 
-3.428005 4.46659 -4.309745 0.5083677 -0.2094885 0.8352708 0 0 255 0 
-4.724464 4.524341 -4.445319 0.795496 0.1977891 0.5727702 0 0 255 0 
-4.947052 4.447701 -4.210971 0.8063598 0.1915992 0.5595298 0 0 255 0 
-4.932892 4.439934 -4.011317 0.7982738 -0.2238922 0.5591335 0 0 255 0 
-5.020691 4.511724 -3.915404 0.3984682 0.3065635 0.864432 0 0 255 0 
-5.109955 4.412487 -3.780932 0.7879459 -0.2056545 0.5803851 0 0 255 0 
-5.582233 4.399826 -3.521913 -0.3375367 -0.4266349 0.8390774 0 0 255 0 
-5.682812 4.502614 -3.667651 -0.3193883 0.05283699 0.9461503 0 0 255 0 
-5.808079 4.403603 -3.743333 -0.5025972 0.1021225 0.8584682 0 0 255 0 
1.656616 4.48732 -4.229743 0.01961249 0.1032492 0.9944626 0 0 255 0 
-1.944843 4.473346 -3.232713 0.03454594 -0.8899666 0.4547155 0 0 255 0 
-2.132229 4.478695 -3.388919 -0.2905681 -0.7651207 0.5745957 0 0 255 0 
-3.169273 4.592548 -4.358459 0.3533438 -0.1443003 0.9242979 0 0 255 0 
-3.544796 4.59865 -4.317178 0.5887841 0.5052826 0.6308903 0 0 255 0 
-3.710014 4.653803 -4.204021 0.03694203 0.1943468 0.9802372 0 0 255 0 
-4.640301 4.623973 -4.710357 0.4849815 0.6439611 0.5916989 0 0 255 0 
-4.812283 4.565475 -4.312694 0.7813191 0.2780498 0.558775 0 0 255 0 
-5.2948 4.587603 -3.203052 0.3094574 -0.5641135 0.7655142 0 0 255 0 
-5.659061 4.518478 -3.431218 -0.2270945 -0.3772185 0.8978493 0 0 255 0 
-1.418571 4.553626 -3.313952 -0.5261798 0.2530476 0.8118516 0 0 255 0 
-3.128597 4.741856 -4.263892 -0.2204897 -0.08619026 0.9715744 0 0 255 0 
-3.287155 4.670793 -4.271695 -0.009025633 -0.1512552 0.9884537 0 0 255 0 
-3.581841 4.774329 -4.385345 0.1310134 0.4856981 0.8642529 0 0 255 0 
-3.737953 4.822124 -4.257682 0.6818934 0.4557652 0.5721005 0 0 255 0 
-3.286369 4.959595 -4.437064 -0.3305518 0.4654818 0.8210128 0 0 255 0 
-3.261822 4.833574 -4.286048 0.3049248 -0.1620086 0.9384958 0 0 255 0 
-1.844395 5.487318 -8.648171 0.1223029 -0.4133376 0.9023273 0 0 255 0 
1.029819 4.292356 1.671552 -0.5502079 -0.3716927 0.7477404 0 0 255 0 
1.121922 4.416237 1.749888 -0.4478602 -0.3975724 0.8008478 0 0 255 0 
-1.679985 5.712719 -8.70431 0.232615 -0.5229017 0.8200391 0 0 255 0 
-1.91296 5.821627 -8.460471 0.136881 -0.419115 0.8975561 0 0 255 0 
1.119015 4.538912 1.8427 -0.5288031 -0.3747633 0.7615248 0 0 255 0 
-1.65707 5.84996 -8.409324 0.4279041 -0.4521893 0.7825743 0 0 255 0 
-1.860226 5.965381 -8.30828 -0.2247941 -0.438712 0.8700576 0 0 255 0 
1.131088 4.663085 1.964555 -0.5898709 -0.3967414 0.7033123 0 0 255 0 
-1.687714 6.009067 -8.256354 -0.0497418 -0.4164692 0.907788 0 0 255 0 
-1.697254 6.229651 -7.988238 -0.04791072 -0.6298683 0.7752235 0 0 255 0 
-1.990993 6.272943 -8.221585 0.1932194 -0.4770708 0.8573623 0 0 255 0 
1.069172 4.920759 1.963261 -0.4867679 -0.3322657 0.8078721 0 0 255 0 
0.9713402 5.024066 1.963545 -0.3635403 -0.3148256 0.8767684 0 0 255 0 
-1.657955 6.33265 -8.112075 -0.2239888 -0.4367706 0.8712407 0 0 255 0 
-1.820477 6.305072 -8.153337 -0.160805 -0.4203989 0.8929765 0 0 255 0 
-1.953457 6.428379 -8.159089 0.1689199 -0.4239893 0.8897752 0 0 255 0 
-1.612667 6.490645 -8.027125 -0.1655328 -0.4180533 0.8932134 0 0 255 0 
-1.602913 6.474035 -7.967334 -0.2724521 -0.4121714 0.8694168 0 0 255 0 
-1.779583 6.456283 -8.073184 -0.1625072 -0.4222379 0.8918002 0 0 255 0 
-1.724403 6.603063 -7.949153 -0.2972523 -0.4043487 0.8649528 0 0 255 0 
-1.906639 6.572348 -8.021617 -0.1558906 -0.4314484 0.8885664 0 0 255 0 
-1.579144 7.769526 -14.97313 -0.1117451 -0.3862827 0.9155867 0 0 255 0 
-1.579144 7.769526 -14.97313 -0.1117451 -0.3862827 0.9155867 0 0 255 0 
-1.579144 7.769526 -14.97313 -0.1117451 -0.3862827 0.9155867 0 0 255 0 
-1.737164 7.706547 -14.75533 -0.1733443 -0.4201212 0.8907583 0 0 255 0 
-1.749763 7.709396 -14.86257 -0.1739649 -0.4219171 0.889788 0 0 255 0 
-1.552097 7.99743 -14.9596 0.01570478 -0.6839685 0.7293433 0 0 255 0 
-1.555744 7.999492 -14.97411 0.07763538 -0.6858017 0.7236354 0 0 255 0 
-1.555744 7.999492 -14.97411 0.07763538 -0.6858017 0.7236354 0 0 255 0 
-1.630604 7.893662 -14.61783 -0.4333825 -0.3538162 0.8288509 0 0 255 0 
-1.591236 8.082899 -14.53705 -0.3417805 -0.2863606 0.8950886 0 0 255 0 
-1.41634 8.132094 -14.49331 -0.2056352 -0.7511489 0.627287 0 0 255 0 
-1.734447 8.224922 -14.52851 -0.3305622 -0.2808736 0.9010209 0 0 255 0 
-2.205166 8.211766 -14.43993 -0.1457902 -0.5006201 0.8533027 0 0 255 0 
-1.559986 8.492362 -14.55514 -0.167328 -0.453286 0.8755191 0 0 255 0 
-1.689068 8.408938 -14.4377 -0.3325914 -0.345007 0.8776977 0 0 255 0 
-1.626514 8.587689 -14.25586 -0.3834963 -0.2287046 0.8947765 0 0 255 0 
-1.597439 8.786245 -14.20531 -0.3931881 -0.2260204 0.8912454 0 0 255 0 
-1.461155 8.866129 -14.29103 -0.2854356 -0.7935648 0.5373845 0 0 255 0 
-1.743176 7.841931 -7.20214 -0.6096321 -0.1068994 0.7854435 0 0 255 0 
0.3971901 7.128167 3.07577 0.5216536 -0.4417533 0.7298846 0 0 255 0 
1.101383 7.122317 3.095213 -0.606343 -0.3782406 0.6994873 0 0 255 0 
0.6493454 7.399965 3.022385 0.3139564 -0.3842026 0.8682283 0 0 255 0 
0.526783 7.341657 3.044305 0.3385106 -0.3405741 0.8771659 0 0 255 0 
0.6157875 7.887443 2.852186 0.503937 0.3887636 0.771304 0 0 255 0 
-3.004192 -9.303583 6.785838 0.592356 -0.4058865 0.6959671 0 0 255 0 
-2.640396 -7.327066 -4.722056 -0.2399736 0.4110893 0.8794421 0 0 255 0 
-3.171314 -7.010679 -5.219382 -0.4041821 0.7225145 0.5609008 0 0 255 0 
-3.55479 -7.0128 -5.373099 -0.394713 0.6187187 0.6792557 0 0 255 0 
-3.537731 -7.014774 -5.370854 -0.4407128 0.5578558 0.7032557 0 0 255 0 
-3.421398 -6.874646 -5.437289 -0.3842106 0.6736582 0.6313216 0 0 255 0 
-3.60157 -6.890758 -5.513141 -0.4178793 0.6782494 0.604446 0 0 255 0 
-3.612453 -6.890192 -5.500129 -0.4580564 0.6373179 0.6196859 0 0 255 0 
-3.645779 -6.777363 -5.662742 -0.4269252 0.6927301 0.5812579 0 0 255 0 
-3.144634 -6.334507 -5.007888 -0.617786 0.01872795 0.786124 0 0 255 0 
-2.824825 -4.48197 8.838578 0.7843869 -0.3216773 0.5303404 0 0 255 0 
-2.838417 -6.00013 -4.960265 -0.5721664 0.4906492 0.6571831 0 0 255 0 
-2.806473 -4.360124 8.873942 0.7783821 -0.3326902 0.5323904 0 0 255 0 
-2.884991 -5.820787 -4.880359 -0.6134374 0.3904447 0.6864756 0 0 255 0 
-2.896797 -4.289855 8.94246 0.7904464 -0.3128263 0.5266263 0 0 255 0 
-3.140045 -5.633389 -4.796905 -0.6144992 -0.1964658 0.7640626 0 0 255 0 
1.32711 -5.043431 -2.094733 -0.1013339 -0.6031939 0.7911316 0 0 255 0 
1.175888 -5.13772 -2.796409 -0.3117223 -0.66409 0.6795681 0 0 255 0 
1.515774 -5.058123 -1.79607 -0.1006478 -0.7656528 0.635331 0 0 255 0 
-0.3570557 -4.902365 -1.716855 0.09137425 -0.7997906 0.5932837 0 0 255 0 
1.465958 -4.73317 -1.600607 0.01886712 -0.7916625 0.6106666 0 0 255 0 
0.1166344 -4.694959 -1.242315 -0.4842885 -0.4435003 0.7541696 0 0 255 0 
-1.07048 -4.821473 -1.511996 -0.3427922 -0.1923386 0.9195107 0 0 255 0 
1.463596 -4.576533 -1.333484 -0.4533783 -0.5114103 0.7300047 0 0 255 0 
0.2602348 -4.666572 -1.45622 -0.120263 -0.2434296 0.9624336 0 0 255 0 
-0.08346176 -4.582027 -1.367998 0.2641404 0.02741038 0.9640943 0 0 255 0 
-1.561703 -4.435009 -1.031385 0.08549383 -0.3995987 0.9126945 0 0 255 0 
-2.546856 -4.160533 -1.537985 -0.0895597 -0.7496243 0.6557759 0 0 255 0 
-2.542431 -4.165685 -1.474938 0.03222665 -0.7093832 0.7040862 0 0 255 0 
-0.6998444 -3.817747 -0.8163376 -0.03950331 -0.3307194 0.9429016 0 0 255 0 
3.525059 -3.73217 -2.966805 0.6904901 0.004319053 0.7233292 0 0 255 0 
3.244843 -2.600347 -2.211718 0.6324206 -0.2941027 0.7166227 0 0 255 0 
-1.253357 -2.589439 -0.606926 -0.2663161 -0.7047979 0.6575222 0 0 255 0 
-2.428139 -2.545483 0.2156162 -0.4273763 0.6229026 0.6552416 0 0 255 0 
-0.8136368 -2.428277 -0.254221 0.2266161 -0.6948788 0.6824867 0 0 255 0 
-0.8954468 -2.218681 -0.09351254 0.5483429 -0.5680477 0.6137108 0 0 255 0 
0.5449829 -2.088008 0.0406971 -0.530086 -0.4802946 0.6988034 0 0 255 0 
-2.72279 -1.953865 -0.3261805 0.5968179 0.5045053 0.6239257 0 0 255 0 
3.612839 -1.776002 -2.871191 0.5549772 -0.5803966 0.5959363 0 0 255 0 
0.2095261 -1.662543 0.149003 0.1460297 -0.6528773 0.7432538 0 0 255 0 
-2.908176 -1.649502 -0.03025055 0.4237763 -0.3637961 0.8294975 0 0 255 0 
-2.805214 -1.719584 -0.1170101 0.3499879 -0.4133394 0.8406304 0 0 255 0 
-2.910267 -1.589729 0.1479034 0.1167386 -0.3895967 0.9135571 0 0 255 0 
-2.906055 -1.592764 0.0646553 0.3729581 -0.318657 0.8714132 0 0 255 0 
0.03720474 -1.346657 0.3383198 0.5507854 -0.5195928 0.6531911 0 0 255 0 
-2.585545 -1.380865 0.4672775 -0.4262681 -0.471614 0.7719301 0 0 255 0 
-0.7757149 -1.182576 0.5686331 -0.2766061 -0.6919455 0.6668581 0 0 255 0 
-2.791691 -0.9870164 0.4953432 -0.06690472 0.02981863 0.9973139 0 0 255 0 
-2.522278 -0.8422765 0.4323177 -0.348715 0.1043301 0.9314035 0 0 255 0 
-2.666424 -0.9152451 0.5145588 -0.02561483 0.08466488 0.9960799 0 0 255 0 
-1.387207 -0.7302331 0.4661961 -0.5721669 0.3973117 0.7174726 0 0 255 0 
0.8887024 -0.5057839 0.3923826 -0.06303328 -0.186617 0.9804088 0 0 255 0 
0.423996 -0.5918843 0.2839594 -0.2864263 -0.03506075 0.9574604 0 0 255 0 
-0.087677 -0.612953 0.3604755 0.06886433 0.7208291 0.6896839 0 0 255 0 
1.354671 -0.3467663 0.1373158 -0.6531268 0.1376456 0.7446337 0 0 255 0 
-1.220139 -0.4436468 0.302084 0.08813427 0.8673003 0.4899203 0 0 255 0 
1.429642 -0.2077279 0.159132 -0.07034177 0.2349245 0.9694653 0 0 255 0 
-0.8816147 -0.2431666 -0.0743084 0.1120448 0.8627221 0.4931096 0 0 255 0 
-1.33028 -0.3063066 0.05081844 0.06411976 0.8635905 0.5000994 0 0 255 0 
1.065937 -0.1689614 -0.2310266 -0.688714 0.1060249 0.7172387 0 0 255 0 
-0.5140419 -0.1863626 -0.1195335 -0.0984471 0.828054 0.5519367 0 0 255 0 
-1.078686 -0.07131822 -0.3261051 -0.1523134 0.800098 0.5802102 0 0 255 0 
-1.430786 -0.1960258 -0.1724997 0.07519057 0.8631457 0.4993249 0 0 255 0 
0.2835922 -0.03330975 -0.4704628 0.02547443 0.8548101 0.5183156 0 0 255 0 
-0.4802628 0.1143013 -0.7852554 0.08617824 0.8609076 0.501409 0 0 255 0 
-2.505283 0.1985475 -0.2066393 -0.2747636 0.6973895 0.6619312 0 0 255 0 
-2.416428 0.1254329 -0.1653433 0.2044636 0.6350381 0.7449301 0 0 255 0 
1.7355 0.311323 -1.197628 -0.07395822 0.8340217 0.5467526 0 0 255 0 
-0.2566566 0.3464742 -1.214917 0.1413266 0.8457153 0.5145807 0 0 255 0 
-1.807888 0.3629524 -0.5740929 -0.09060711 0.8188451 0.5668187 0 0 255 0 
-0.128006 0.4029189 -1.2562 0.1494915 0.8489394 0.5069062 0 0 255 0 
-3.194515 0.5056303 -0.7037859 0.3575082 0.05184283 0.9324698 0 0 255 0 
-7.967125 0.4800423 -0.6580458 0.5682657 0.0569419 0.8208725 0 0 255 0 
-0.1623573 0.5505388 -1.569796 -0.1232822 0.8018305 0.5846971 0 0 255 0 
-1.666725 0.6570821 -1.187237 0.0486417 0.8467273 0.529799 0 0 255 0 
-1.79903 0.6038765 -0.999445 -0.1304773 0.7962174 0.5907736 0 0 255 0 
-0.3579445 0.7527663 -1.67438 0.3415141 0.4132828 0.8441363 0 0 255 0 
-1.141449 0.738807 -1.395415 0.04894045 0.8488755 0.5263226 0 0 255 0 
-7.719967 0.8072146 -1.671517 0.8885185 0.1966018 0.4145872 0 0 255 0 
1.904991 0.8993976 -2.369323 0.03383857 0.850706 0.5245513 0 0 255 0 
1.313206 0.9150989 -2.338955 0.06152518 0.8507363 0.5219797 0 0 255 0 
0.7079964 0.9089956 -2.281608 -0.39366 0.6584098 0.6415052 0 0 255 0 
-0.4105911 0.9326417 -1.834346 0.4242584 0.6709601 0.6081258 0 0 255 0 
-7.629868 0.8852163 -1.934407 0.8891581 0.23794 0.3908741 0 0 255 0 
-7.83411 0.9281636 -1.680215 0.8784252 0.1588808 0.4506952 0 0 255 0 
-7.83123 0.9296957 -1.64738 0.7297664 0.3859675 0.5643316 0 0 255 0 
-8.007008 0.9420266 -1.436385 0.8605875 -0.01464705 0.5090921 0 0 255 0 
2.712734 0.9893872 -2.432921 0.03480513 0.8505731 0.5247043 0 0 255 0 
1.482819 1.033947 -2.624532 -0.1652147 0.7901302 0.5902521 0 0 255 0 
-3.827438 1.086671 -0.4161596 -0.5552236 -0.3714743 0.7441332 0 0 255 0 
-7.749195 1.080038 -2.324395 0.8727085 0.3245118 0.3647906 0 0 255 0 
-7.747597 1.002885 -1.880124 0.8392738 0.2106294 0.5012527 0 0 255 0 
-7.919037 1.149779 -1.96149 0.8472935 -0.02316093 0.53062 0 0 255 0 
-7.935162 1.029255 -1.632428 0.8685865 0.01306072 0.4953654 0 0 255 0 
-7.850395 1.120965 -1.753682 0.8696198 0.07774052 0.4875641 0 0 255 0 
-7.752254 1.232684 -2.667726 0.525894 0.7152942 0.4602059 0 0 255 0 
2.18158 1.310582 -3.106139 -0.1340609 0.8112838 0.569075 0 0 255 0 
1.63422 1.430717 -3.481929 0.05872078 0.8469762 0.5283783 0 0 255 0 
-7.885307 1.431334 -3.17406 0.1305973 0.8366238 0.5319818 0 0 255 0 
2.758457 1.466453 -3.459092 0.04628693 0.8462212 0.5308171 0 0 255 0 
-0.4713745 1.494313 -2.782377 0.4263196 0.7245831 0.5415085 0 0 255 0 
2.038517 1.670994 -3.863914 -0.1494791 0.8020684 0.578223 0 0 255 0 
2.04686 1.619001 -3.706828 0.05535413 0.8443481 0.5329276 0 0 255 0 
1.8438 1.74882 -4.053679 0.2751911 0.7957093 0.5395522 0 0 255 0 
1.8438 1.74882 -4.053679 0.2751911 0.7957093 0.5395522 0 0 255 0 
1.8438 1.74882 -4.053679 0.2751911 0.7957093 0.5395522 0 0 255 0 
-2.785385 1.644009 -2.167716 0.717513 0.300418 0.6284306 0 0 255 0 
-4.459278 1.703143 -2.121325 0.6567985 0.3279311 0.6790268 0 0 255 0 
2.644543 1.881732 -4.151235 -0.3191263 0.7152753 0.6217234 0 0 255 0 
2.364532 1.91036 -4.447856 0.0353159 0.8396535 0.5419735 0 0 255 0 
0.9867706 1.724116 0.38554 -0.6273645 -0.3459012 0.6976861 0 0 255 0 
0.9839897 1.722948 0.381259 -0.6228092 -0.3474789 0.7009763 0 0 255 0 
-1.843964 1.67058 -0.5327263 -0.3216208 -0.7243335 0.6098374 0 0 255 0 
-2.60043 1.902666 -2.663923 0.09903157 0.4544449 0.8852529 0 0 255 0 
-2.964405 1.768075 -1.695006 0.4321169 0.6755927 0.597369 0 0 255 0 
-2.958977 1.770368 -1.754908 0.3602787 0.7137263 0.6006606 0 0 255 0 
-2.991611 1.745006 -1.617645 0.6244867 0.4765883 0.6187726 0 0 255 0 
-4.338875 1.786885 -2.382873 0.7521936 0.264072 0.6037141 0 0 255 0 
-4.4846 1.884212 -2.228553 0.3671423 0.08693851 0.9260932 0 0 255 0 
2.503544 1.949605 -4.465911 -0.01620439 0.8337875 0.5518474 0 0 255 0 
1.680256 2.087805 -4.800958 -0.1083014 0.8098903 0.5764964 0 0 255 0 
0.4169273 1.994723 -4.944705 -0.4605399 0.5898297 0.6633286 0 0 255 0 
-2.76865 1.907694 -2.673876 -0.1359646 0.6147635 0.7769032 0 0 255 0 
-4.365414 1.984736 -2.457615 0.7938566 -0.1360942 0.5926799 0 0 255 0 
-4.467266 1.907498 -2.283415 0.3721415 0.379146 0.847207 0 0 255 0 
-6.307556 2.023222 -2.787335 -0.2733084 -0.4637191 0.8427737 0 0 255 0 
1.863667 2.228158 -5.053481 -0.1929768 0.7795202 0.5959095 0 0 255 0 
0.5233536 1.953095 0.2637863 -0.3508697 -0.3138064 0.8822787 0 0 255 0 
-4.816906 2.101973 -2.249524 0.3480797 0.1286813 0.9285908 0 0 255 0 
-2.312641 2.282886 -3.662326 0.5907792 -0.2276426 0.7740535 0 0 255 0 
-4.829395 2.262918 -2.233264 0.3429439 0.2530726 0.9046238 0 0 255 0 
-2.29044 2.446229 -3.552711 0.4429997 -0.1306485 0.8869509 0 0 255 0 
-3.409229 2.632951 -5.092704 0.8228647 -0.3153079 0.4727319 0 0 255 0 
-3.565716 2.593024 -4.84879 0.8272229 -0.3189915 0.4625446 0 0 255 0 
-3.385849 2.789054 -5.050849 0.6016824 -0.1393135 0.7864925 0 0 255 0 
-3.413952 2.761767 -5.209579 0.8547354 -0.2210596 0.4696387 0 0 255 0 
-3.481953 2.693601 -4.977563 0.8224536 -0.2409258 0.515292 0 0 255 0 
-3.375744 2.951124 -5.063689 0.8355997 -0.286663 0.4686126 0 0 255 0 
-3.464733 2.85342 -4.952313 0.8092036 -0.2257503 0.5424271 0 0 255 0 
-3.451134 3.014544 -4.946574 0.7940558 -0.2944528 0.5317643 0 0 255 0 
-1.225735 3.075419 -4.057775 -0.2922731 -0.06502846 0.9541212 0 0 255 0 
-3.388981 3.246767 -4.882823 0.630525 -0.381796 0.6757742 0 0 255 0 
-5.73465 3.218235 -3.93226 -0.1139713 -0.8427574 0.5260898 0 0 255 0 
-1.219589 3.239126 -4.031405 -0.3496203 -0.5018318 0.7911582 0 0 255 0 
-1.486923 3.320511 -4.085931 0.4261623 -0.2045859 0.8812092 0 0 255 0 
-1.35083 3.171673 -2.0499 -0.2948188 -0.3424588 0.8920786 0 0 255 0 
-1.4314 3.186708 -2.187244 -0.417893 -0.6635522 0.620535 0 0 255 0 
-5.35619 3.333206 -4.010657 0.1113718 -0.6489909 0.7526005 0 0 255 0 
-5.627129 3.323617 -3.921708 -0.2525938 -0.7618654 0.5964543 0 0 255 0 
-1.490215 3.318292 -2.04526 -0.5842322 -0.3427548 0.7356576 0 0 255 0 
-5.558323 3.542398 -3.792327 0.6343498 0.4823038 0.6041383 0 0 255 0 
-6.916134 3.497377 -2.864337 0.6710007 -0.149895 0.7261472 0 0 255 0 
-2.569485 3.417062 -2.602708 -0.3938137 -0.431057 0.8118497 0 0 255 0 
-5.477318 4.177182 -3.690965 -0.01352812 -0.8792609 0.4761479 0 0 255 0 
-5.725296 4.11352 -3.878303 0.09265506 -0.3031057 0.9484423 0 0 255 0 
-6.203663 4.066256 -3.871007 -0.1543026 -0.356338 0.9215283 0 0 255 0 
-1.504799 4.408089 -3.354487 -0.6149334 0.2057401 0.7612677 0 0 255 0 
0.973835 4.740426 -5.267833 0.1747228 0.7078643 0.6843977 0 0 255 0 
1.115314 4.16677 1.680217 -0.5431517 -0.3700347 0.7536985 0 0 255 0 
-3.425259 4.86933 -4.371654 0.2654535 0.3907497 0.8813905 0 0 255 0 
0.9171677 5.108086 -5.547214 -0.1785371 0.5604308 0.8087287 0 0 255 0 
1.139957 4.289203 1.774923 -0.5216844 -0.3960977 0.7556136 0 0 255 0 
1.252563 4.415427 1.823285 -0.4557486 -0.351105 0.8179361 0 0 255 0 
1.24205 4.534609 1.937157 -0.4595463 -0.3928075 0.7965677 0 0 255 0 
1.316544 4.540988 1.913406 -0.3561925 -0.5466836 0.7578021 0 0 255 0 
1.12595 4.540641 1.839875 -0.5057137 -0.3812568 0.7738841 0 0 255 0 
1.150249 4.538978 1.855454 -0.4627863 -0.390354 0.7958974 0 0 255 0 
1.12764 4.535867 1.847404 -0.5105418 -0.3878061 0.7674332 0 0 255 0 
1.323353 4.658703 2.036116 -0.585473 -0.4532068 0.6721793 0 0 255 0 
1.197514 4.658415 1.934666 -0.5677574 -0.4413843 0.6948608 0 0 255 0 
1.037903 4.79155 1.941605 -0.6077069 -0.3478568 0.713925 0 0 255 0 
0.3903618 4.820287 2.057188 -0.218294 -0.2181546 0.9511869 0 0 255 0 
-2.83353 6.028035 -7.832583 0.7994596 -0.3018062 0.5194007 0 0 255 0 
-2.867161 5.985935 -7.920676 0.7711526 -0.3322869 0.5430546 0 0 255 0 
1.198025 5.033827 2.112252 -0.6118196 -0.2504072 0.7503148 0 0 255 0 
-1.37991 7.612324 -14.80562 -0.04975152 -0.8537987 0.5182211 0 0 255 0 
-2.742626 6.991066 -7.499658 0.8299779 -0.2470119 0.5001215 0 0 255 0 
-1.544445 8.700639 -14.55917 0.01047501 -0.551405 0.8341725 0 0 255 0 
1.240364 7.085481 3.391154 -0.1991595 -0.6677225 0.7172741 0 0 255 0 
0.4852715 7.544423 3.080919 0.03431374 -0.014555 0.9993048 0 0 255 0 
-1.950413 -11.67427 5.592319 -0.4065561 -0.4110594 0.815931 0 0 255 0 
-2.53875 -11.3769 5.524234 -0.3716962 -0.369435 0.8516809 0 0 255 0 
-2.865597 -11.39123 5.500443 -0.558808 -0.3349291 0.7586545 0 0 255 0 
-2.756012 -11.24633 5.616075 0.5073418 -0.3572993 0.784182 0 0 255 0 
-2.825832 -10.85674 5.80474 0.3387418 -0.406888 0.8483495 0 0 255 0 
-2.934013 -10.76634 5.912438 0.110385 -0.5602438 0.8209397 0 0 255 0 
-2.764515 -10.54681 5.926101 0.3191739 -0.4050646 0.8567674 0 0 255 0 
-2.732418 -10.39246 5.989715 0.3903981 -0.3977301 0.8303009 0 0 255 0 
-2.647041 -10.17578 6.061574 0.2089288 -0.4095052 0.8880627 0 0 255 0 
-2.774311 -10.06661 6.157351 0.2676076 -0.4148968 0.8696247 0 0 255 0 
-2.729656 -7.838004 7.194758 -0.1615461 -0.4506488 0.8779624 0 0 255 0 
-2.696018 -7.709209 7.257028 -0.1620254 -0.4334619 0.8864867 0 0 255 0 
-2.695011 -7.702794 7.263732 -0.03987893 -0.3897129 0.920073 0 0 255 0 
-2.663063 -7.567688 7.354238 -0.1992426 -0.3647063 0.9095557 0 0 255 0 
-2.797009 -7.598954 7.312278 -0.199436 -0.4372267 0.8769593 0 0 255 0 
-2.761703 -7.444985 7.391849 -0.3566319 -0.4534641 0.8168134 0 0 255 0 
-2.473461 -7.168447 7.512927 -0.3754943 -0.4412385 0.8150533 0 0 255 0 
-2.551102 -6.608776 7.827842 0.1516823 -0.7237502 0.6731849 0 0 255 0 
1.570408 -5.271313 -2.536559 -0.3065953 -0.7208717 0.6215648 0 0 255 0 
1.385166 -5.114145 -2.445483 -0.3077133 -0.7213981 0.6204006 0 0 255 0 
0.5688324 -5.039298 -1.23874 -0.7375614 -0.2499909 0.6273026 0 0 255 0 
0.6839218 -4.935199 -1.655759 -0.3229595 -0.6667772 0.6716436 0 0 255 0 
0.5023384 -4.907812 -1.380413 -0.7464004 -0.2583716 0.6132948 0 0 255 0 
0.6096458 -4.907047 -1.244322 -0.07781869 -0.2634796 0.9615213 0 0 255 0 
-0.8925629 -5.086633 -2.404876 0.03095633 -0.7957563 0.6048252 0 0 255 0 
-1.096619 -5.000852 -1.731404 0.01971185 0.0240647 0.9995167 0 0 255 0 
-2.932087 -3.865407 9.029336 -0.1512543 0.003645645 0.9884886 0 0 255 0 
-5.405483 -4.857072 0.2640562 -0.6723132 0.2982498 0.6775261 0 0 255 0 
-5.664474 -4.902408 0.1872072 -0.6709684 0.3146193 0.6714289 0 0 255 0 
-5.678066 -4.905666 -0.3184214 0.2311773 0.8052967 0.5459436 0 0 255 0 
-5.779621 -5.040312 -0.6069403 0.3180544 0.8284566 0.4609786 0 0 255 0 
-6.169033 -5.025694 -1.358294 -0.1049447 0.3928701 0.9135866 0 0 255 0 
-5.997364 -5.052222 -0.9440947 -0.2235137 0.7838657 0.5793074 0 0 255 0 
-6.218334 -5.014932 -0.7757902 -0.2495225 0.8305343 0.4979468 0 0 255 0 
-6.161125 -5.027326 -0.932353 -0.1688854 0.8202012 0.5465782 0 0 255 0 
-6.222073 -5.032908 -0.8061628 -0.1686111 0.8247331 0.5398016 0 0 255 0 
-6.465115 -5.039171 -1.149487 -0.2734301 0.8081167 0.5217115 0 0 255 0 
-6.448528 -5.036985 -1.132051 -0.1796666 0.796111 0.5778639 0 0 255 0 
0.2396927 -4.827729 -1.597599 -0.2432146 -0.6481683 0.7216126 0 0 255 0 
0.2436142 -4.850386 -1.480689 -0.6607431 -0.4152725 0.6252741 0 0 255 0 
-0.2070961 -4.841786 -1.658203 -0.6847364 -0.2672312 0.6780297 0 0 255 0 
-5.226048 -4.677912 0.6973658 0.4608052 -0.6025388 0.6516178 0 0 255 0 
-5.390575 -4.679629 0.5552073 0.423433 -0.6375381 0.6436225 0 0 255 0 
-6.342731 -4.86989 -1.529401 -0.4740229 0.4595093 0.7511018 0 0 255 0 
-6.303707 -4.996388 -1.389514 -0.3879153 0.3131496 0.8668682 0 0 255 0 
-6.636189 -4.980629 -1.629636 -0.2788476 0.6750316 0.6830643 0 0 255 0 
1.255421 -4.703211 -1.553531 -0.4221075 -0.6301011 0.6517646 0 0 255 0 
1.113407 -4.611887 -1.375408 -0.2442422 -0.7570612 0.6059741 0 0 255 0 
0.3600388 -4.667033 -1.338051 -0.7821405 -0.06619357 0.6195765 0 0 255 0 
-0.2082634 -4.670794 -1.473889 -0.1858603 -0.7474825 0.6377505 0 0 255 0 
-1.593693 -4.585483 -1.08266 -0.5467547 -0.3706076 0.7508057 0 0 255 0 
-6.350262 -4.74912 -1.489831 -0.4089161 0.5747553 0.7088332 0 0 255 0 
-6.468227 -4.84913 -1.422393 0.05607255 0.8017499 0.5950239 0 0 255 0 
-6.709427 -4.850485 -1.736373 0.03873727 0.7043256 0.708819 0 0 255 0 
-6.878548 -4.84549 -2.00405 -0.5883924 0.239348 0.7723389 0 0 255 0 
0.3025475 -4.523741 -1.348127 -0.1030536 -0.3743659 0.9215375 0 0 255 0 
-1.43391 -4.490874 -1.203619 0.5805686 -0.5802302 0.5712042 0 0 255 0 
-5.783886 -4.598885 -1.096032 -0.249566 -0.00829589 0.9683228 0 0 255 0 
-6.309727 -4.633123 -1.499877 -0.5085752 -0.07745677 0.8575271 0 0 255 0 
-6.543194 -4.70843 -1.731919 0.02883554 -0.1852308 0.982272 0 0 255 0 
-6.687534 -4.642515 -1.918857 -0.677184 0.1332466 0.7236485 0 0 255 0 
-6.94416 -4.763718 -1.976649 0.01926944 0.6853352 0.7279734 0 0 255 0 
-6.91983 -4.694169 -2.043429 -0.2620229 0.2300261 0.9372469 0 0 255 0 
-7.188488 -4.749753 -2.205968 -0.6026942 0.3579327 0.7131928 0 0 255 0 
-5.638798 -4.445674 -1.09883 -0.06426659 -0.3970589 0.915541 0 0 255 0 
-5.779999 -4.451481 -1.079474 0.03569388 -0.03266298 0.9988289 0 0 255 0 
-5.928249 -4.502418 -1.175265 -0.1019656 -0.3462222 0.9325951 0 0 255 0 
-6.826347 -4.604118 -1.968024 -0.5405703 0.2984022 0.7865999 0 0 255 0 
-6.73555 -4.463884 -1.935716 0.06915355 0.3285869 0.9419386 0 0 255 0 
-7.127651 -4.569289 -2.190303 0.0686973 0.4126466 0.9082967 0 0 255 0 
-7.093193 -4.609353 -2.212472 -0.5126195 0.3231392 0.7954888 0 0 255 0 
-7.204472 -4.609236 -2.308679 -0.6699177 0.3040546 0.6773186 0 0 255 0 
-7.42683 -4.610522 -2.558087 0.1917857 -0.2676843 0.9442262 0 0 255 0 
1.296337 -4.119614 -0.966486 -0.5712855 -0.4841311 0.6627592 0 0 255 0 
-0.5386658 -4.13273 -0.9026852 -0.6234853 -0.4244426 0.6565927 0 0 255 0 
-5.446983 -4.214777 -0.8867025 -0.2629744 -0.232548 0.9363574 0 0 255 0 
-5.759029 -4.339014 -1.031293 0.3069336 -0.440227 0.8437967 0 0 255 0 
-5.867424 -4.260185 -1.038699 0.2138787 -0.4841876 0.848421 0 0 255 0 
-6.160618 -4.35371 -1.152761 -0.2663752 -0.6703572 0.6925784 0 0 255 0 
-7.131641 -4.476758 -2.356648 -0.6994748 0.0253582 0.7142076 0 0 255 0 
-7.367386 -4.476138 -2.575841 -0.700847 0.01354526 0.7131829 0 0 255 0 
-7.592907 -4.476509 -2.810063 -0.6423545 -0.2284774 0.7315595 0 0 255 0 
-7.813465 -4.432838 -2.913789 -0.3582917 0.438967 0.8239753 0 0 255 0 
-5.413002 -4.079072 -0.7947741 -0.3155735 -0.5191771 0.7942719 0 0 255 0 
-5.562122 -4.121386 -0.9430628 -0.1439694 -0.4375563 0.8875902 0 0 255 0 
-5.559319 -4.128291 -0.9697084 0.04900622 -0.4320616 0.9005114 0 0 255 0 
-5.722645 -4.182055 -0.9758863 0.1472404 -0.4542313 0.8786318 0 0 255 0 
-5.991978 -4.165347 -1.013576 0.0233807 -0.361378 0.9321255 0 0 255 0 
-5.834209 -4.106428 -0.9221678 0.2739033 -0.4262761 0.8621293 0 0 255 0 
-6.135769 -4.197441 -1.110631 -0.4394815 -0.2518924 0.8622101 0 0 255 0 
-6.309708 -4.152439 -1.061671 -0.1374889 -0.3744845 0.9169833 0 0 255 0 
-6.565582 -4.191404 -1.643428 -0.5059733 -0.46035 0.7294305 0 0 255 0 
-7.418808 -4.330221 -2.59591 -0.2735831 0.7564901 0.5940328 0 0 255 0 
-7.424469 -4.332391 -2.610084 -0.2564367 0.1014247 0.9612245 0 0 255 0 
-7.40263 -4.334382 -2.647447 -0.2523204 0.1340807 0.9583094 0 0 255 0 
-7.693066 -4.315761 -2.864379 -0.2918315 0.3421212 0.8931897 0 0 255 0 
-7.835697 -4.283 -2.90167 -0.3005084 0.3356839 0.8927551 0 0 255 0 
-7.94495 -4.392836 -2.869765 -0.4560298 0.5748131 0.6794313 0 0 255 0 
-5.528324 -3.972708 -0.8144941 -0.3628721 -0.4242408 0.8296645 0 0 255 0 
-5.525814 -3.97666 -0.8802614 0.03153133 -0.4214267 0.9063147 0 0 255 0 
-5.68512 -4.029897 -0.9120436 0.07264701 -0.4431032 0.8935221 0 0 255 0 
-5.818367 -3.936148 -0.9079218 -0.2739087 -0.3840421 0.8817518 0 0 255 0 
-5.967327 -3.997333 -0.9098387 -0.1334496 -0.362532 0.9223678 0 0 255 0 
-6.025082 -3.99534 -0.892705 -0.266156 -0.4557783 0.849369 0 0 255 0 
-6.092091 -4.037113 -0.9546976 0.3660198 -0.3474246 0.8633225 0 0 255 0 
-6.222496 -3.961296 -0.9419336 -0.3231084 -0.3505509 0.8790414 0 0 255 0 
-7.351597 -4.064573 -2.445268 -0.6575109 -0.1816455 0.7312204 0 0 255 0 
-7.722061 -4.171179 -2.908463 -0.2329343 0.4134944 0.8802065 0 0 255 0 
-7.564426 -4.192143 -2.738212 0.116491 0.6998701 0.7047067 0 0 255 0 
-7.87392 -4.145127 -2.969129 -0.1945738 0.4099011 0.8911353 0 0 255 0 
-7.983463 -4.253325 -2.977012 0.1979514 -0.1562614 0.9676769 0 0 255 0 
1.335037 -3.643509 -0.7542591 -0.04942685 -0.3582627 0.9323113 0 0 255 0 
-0.5733299 -3.71891 -0.8164539 -0.7100565 0.07192167 0.7004619 0 0 255 0 
-0.7043266 -3.785946 -0.834528 -0.04239789 -0.08785418 0.9952307 0 0 255 0 
-5.617817 -3.746769 -0.7694902 -0.1125686 -0.4876566 0.8657485 0 0 255 0 
-5.821777 -3.813512 -0.8174849 -0.01417926 -0.427155 0.9040672 0 0 255 0 
-5.983479 -3.85766 -0.8467875 -0.009117723 -0.4528376 0.8915465 0 0 255 0 
-7.209843 -3.9378 -2.255372 -0.6691692 -0.0867077 0.7380339 0 0 255 0 
-7.894417 -3.998856 -2.959519 0.1008132 0.3061081 0.9466436 0 0 255 0 
-8.015926 -4.086094 -2.920321 -0.3865342 0.1878131 0.9029499 0 0 255 0 
1.085789 -3.564751 -0.5472088 -0.5656297 -0.420746 0.7092506 0 0 255 0 
-5.571369 -3.592675 -0.6564875 -0.3314501 -0.3942428 0.857154 0 0 255 0 
-5.713238 -3.624423 -0.7165594 -0.4580783 -0.4287215 0.7786925 0 0 255 0 
-7.380054 -3.812937 -2.397489 -0.5233301 0.003690183 0.8521223 0 0 255 0 
-8.052002 -3.816901 -2.861852 -0.08724272 -0.03164903 0.9956847 0 0 255 0 
-0.4884109 -3.38197 -0.5596657 -0.6416919 -0.4458336 0.6240703 0 0 255 0 
-5.837925 -3.529752 -0.6694136 0.07834658 -0.4087147 0.9092934 0 0 255 0 
-6.003147 -3.574491 -0.7126169 -0.02553156 -0.3154836 0.9485874 0 0 255 0 
-6.279541 -3.588495 -0.9486666 -0.5286123 -0.3912149 0.7533398 0 0 255 0 
-7.239754 -3.682086 -2.184934 -0.6111347 -0.3370622 0.7161733 0 0 255 0 
3.508854 -3.318572 -2.537355 0.01473105 -0.4059618 0.9137716 0 0 255 0 
-5.66153 -3.40418 -0.6293287 0.5072114 -0.3443848 0.7900224 0 0 255 0 
-5.783443 -3.309251 -0.5765638 0.0671832 -0.3988259 0.9145623 0 0 255 0 
-5.963585 -3.433746 -0.6377649 0.04086953 -0.4263687 0.9036252 0 0 255 0 
-6.221542 -3.323554 -0.7755194 -0.5387892 -0.3454149 0.7683717 0 0 255 0 
-6.124535 -3.459826 -0.7865992 -0.3018985 -0.4042818 0.8633734 0 0 255 0 
-7.050102 -3.427974 -1.729619 -0.4507242 -0.4014042 0.7973219 0 0 255 0 
-5.390759 -3.142076 -0.3484221 -0.2489604 -0.3399197 0.9069034 0 0 255 0 
-5.636456 -3.257519 -0.5609961 -0.09592879 -0.3685291 0.9246541 0 0 255 0 
-5.753086 -3.162378 -0.498189 0.02118775 -0.3459808 0.9380019 0 0 255 0 
-5.968124 -3.270288 -0.5871649 -0.0206944 -0.398528 0.916923 0 0 255 0 
-6.037899 -3.165626 -0.6136847 0.03387633 -0.01667836 0.9992866 0 0 255 0 
-6.183109 -3.190711 -0.6934309 -0.4894268 -0.3037401 0.8174369 0 0 255 0 
-6.314228 -3.191385 -0.797492 -0.5557021 -0.328623 0.7636761 0 0 255 0 
-1.197231 -2.934504 -0.4078674 -0.5859714 -0.3267027 0.7415546 0 0 255 0 
-5.281067 -3.056396 -0.4217119 0.009576172 0.2780547 0.9605174 0 0 255 0 
-5.416225 -3.005173 -0.4055243 0.005382836 0.350982 0.9363668 0 0 255 0 
-5.879505 -3.089223 -0.5292978 -0.01540473 -0.05336531 0.9984565 0 0 255 0 
-5.758163 -3.015175 -0.5234575 0.0458096 0.05757298 0.9972898 0 0 255 0 
-5.740429 -3.015384 -0.4293947 0.3866616 -0.3501569 0.8531601 0 0 255 0 
-6.011566 -3.023246 -0.5798941 0.03761831 0.04456409 0.9982979 0 0 255 0 
-6.003948 -3.015786 -0.5563898 0.01722685 -0.1347575 0.9907288 0 0 255 0 
-6.144829 -3.048777 -0.6265993 -0.3409139 -0.2888851 0.8946077 0 0 255 0 
-6.151371 -3.062574 -0.6323118 -0.2695532 -0.2782222 0.9219187 0 0 255 0 
-6.408524 -3.062375 -0.819335 -0.5872235 -0.3671916 0.7213448 0 0 255 0 
-6.283676 -3.062072 -0.715167 -0.5474664 -0.2696779 0.7921835 0 0 255 0 
3.578552 -2.940994 -2.429897 -0.2185948 -0.2718494 0.9371845 0 0 255 0 
-5.296959 -2.914415 -0.4027128 -0.08492181 0.3135243 0.9457759 0 0 255 0 
-5.639637 -2.943053 -0.5611391 0.138728 0.1481098 0.9791922 0 0 255 0 
-5.87376 -2.945646 -0.5129786 0.7647893 -0.3483884 0.5419614 0 0 255 0 
-5.879589 -2.945485 -0.5200853 -0.07428756 0.03875432 0.9964837 0 0 255 0 
-5.743774 -2.865636 -0.4072847 0.7714191 -0.3450968 0.5346228 0 0 255 0 
-6.115734 -2.903908 -0.5622339 -0.3510063 -0.3636365 0.8628805 0 0 255 0 
-6.239384 -2.927598 -0.6299829 -0.4982978 -0.3659591 0.7859848 0 0 255 0 
3.625118 -2.794782 -2.454329 -0.132448 -0.2898967 0.947849 0 0 255 0 
-5.759254 -2.713001 -0.4996443 0.65757 -0.4672996 0.5909595 0 0 255 0 
-6.1422 -2.787704 -0.5036726 -0.4060117 -0.4146179 0.8143992 0 0 255 0 
-6.390354 -2.819936 -0.669404 -0.4844725 -0.1543351 0.8610845 0 0 255 0 
3.479759 -2.671264 -2.332553 -0.08483854 -0.582465 0.8084171 0 0 255 0 
0.807827 -2.60257 -0.2424583 -0.5921911 -0.5416531 0.596591 0 0 255 0 
-1.111126 -2.549133 -0.2173634 -0.650554 -0.4235818 0.6303638 0 0 255 0 
-5.286083 -2.58838 -0.1326952 0.2125456 -0.7556993 0.6194701 0 0 255 0 
-5.51421 -2.559023 -0.4312601 0.6069353 -0.4864241 0.6285074 0 0 255 0 
-5.89518 -2.681068 -0.4064932 -0.1088032 -0.7393914 0.6644261 0 0 255 0 
-6.14006 -2.631657 -0.4799604 -0.1909466 -0.7662013 0.6135761 0 0 255 0 
-6.102779 -2.654758 -0.49792 0.3646696 -0.7068581 0.6061085 0 0 255 0 
-6.262325 -2.701936 -0.5322695 -0.4791079 -0.02759363 0.8773217 0 0 255 0 
-7.599682 -2.801109 -2.138942 0.5043032 0.6210693 0.5999594 0 0 255 0 
-1.334976 -2.377928 -0.1129637 -0.4055626 -0.6204283 0.6712588 0 0 255 0 
-5.310368 -2.426176 -0.06138325 0.1387049 -0.6311446 0.7631623 0 0 255 0 
-5.619484 -2.499511 -0.2964163 0.1409771 -0.7023935 0.6976876 0 0 255 0 
-5.930347 -2.460736 -0.1383924 0.01805374 -0.04500492 0.9988236 0 0 255 0 
-5.829025 -2.549515 -0.2958059 -0.1649515 -0.646888 0.7445318 0 0 255 0 
-6.060429 -2.415524 -0.1260157 -0.1642842 0.3017889 0.9391139 0 0 255 0 
3.938255 -2.340418 -2.917527 0.2619828 0.7682199 0.5841261 0 0 255 0 
-2.482059 -2.30046 -0.1541996 -0.2256124 0.8177364 0.5295342 0 0 255 0 
-5.25885 -2.315083 0.07920551 -0.1262759 -0.6725248 0.7292222 0 0 255 0 
-5.590069 -2.319963 -0.1122274 0.007320255 -0.541692 0.8405449 0 0 255 0 
-5.761013 -2.398895 -0.1504946 -0.1602365 -0.5133054 0.8431142 0 0 255 0 
-5.871132 -2.283235 -0.07533741 0.05118909 -0.4367033 0.8981482 0 0 255 0 
-6.059143 -2.260739 -0.1175165 -0.3393708 0.6262591 0.7018735 0 0 255 0 
-6.176655 -2.337751 -0.1864481 -0.4841271 0.003411747 0.8749914 0 0 255 0 
3.563915 -2.249705 -2.372093 0.6650496 -0.1173472 0.7375225 0 0 255 0 
0.5570946 -2.085981 0.0470295 -0.5567364 -0.5826086 0.5921245 0 0 255 0 
-5.54855 -2.176446 0.01787853 -0.09542841 -0.3745705 0.9222749 0 0 255 0 
-5.989098 -2.220624 -0.05069256 -0.07030848 -0.539876 0.8388031 0 0 255 0 
-5.98571 -2.122503 0.007863045 -0.06345856 -0.4487224 0.8914149 0 0 255 0 
-6.253819 -2.218383 -0.2429724 -0.6657626 -0.2107567 0.7157804 0 0 255 0 
-7.74826 -2.342615 -2.135797 -0.6382945 -0.2639346 0.7231311 0 0 255 0 
-5.518513 -2.037355 0.07813358 -0.2194508 -0.2902549 0.931447 0 0 255 0 
-5.62804 -1.998963 0.06476688 0.1893804 -0.4686182 0.8628632 0 0 255 0 
-5.78088 -2.052931 0.06772709 0.1267732 -0.4251468 0.8962021 0 0 255 0 
-6.168591 -1.97328 -0.08051777 -0.4355025 -0.4022442 0.8053183 0 0 255 0 
3.255699 -1.900828 -1.822167 0.6027075 0.3378404 0.7229165 0 0 255 0 
-1.819351 -1.769718 0.1396351 -0.6195174 -0.309663 0.7213227 0 0 255 0 
-5.505119 -1.894988 0.2018061 -0.2094219 -0.3882159 0.8974582 0 0 255 0 
-5.858891 -1.812383 0.1406298 -0.2418136 -0.4159395 0.8766528 0 0 255 0 
-6.012722 -1.863826 0.1314249 -0.02418587 -0.3138304 0.9491708 0 0 255 0 
-5.895012 -1.954822 0.09169674 -0.03302971 -0.4476783 0.8935844 0 0 255 0 
-6.146923 -1.85114 -0.01008892 -0.3986112 -0.3970632 0.8267108 0 0 255 0 
-6.12479 -1.833206 0.1150141 -0.006441712 -0.3331886 0.9428381 0 0 255 0 
-6.27314 -1.972346 -0.1624155 -0.6291429 -0.318699 0.7089497 0 0 255 0 
-8.852131 -2.098573 -3.053887 0.03424114 -0.1208227 0.9920838 0 0 255 0 
-5.709202 -1.789088 0.1829062 0.1034154 -0.4270819 0.8982793 0 0 255 0 
-5.553661 -1.732418 0.244813 -0.3371124 -0.4900568 0.8038654 0 0 255 0 
-5.835533 -1.665054 0.2284346 -0.01819873 -0.4257577 0.9046539 0 0 255 0 
-5.97086 -1.730916 0.1745653 0.246904 -0.3870561 0.8883837 0 0 255 0 
-6.112129 -1.731406 0.07150745 -0.5034444 -0.3819456 0.7750235 0 0 255 0 
-6.247532 -1.731731 -0.02911472 -0.529784 -0.3771994 0.7596372 0 0 255 0 
-8.561897 -1.83595 -3.087977 -0.2687684 -0.3428951 0.9001037 0 0 255 0 
-8.707623 -1.867194 -3.105901 -0.02397615 -0.2886958 0.9571207 0 0 255 0 
-8.716396 -1.89205 -3.099832 0.3237007 -0.382334 0.8654699 0 0 255 0 
0.2823486 -1.543356 0.4151402 -0.3463851 -0.6854051 0.6404974 0 0 255 0 
-5.529095 -1.592121 0.3054323 -0.3304482 -0.2595769 0.9074277 0 0 255 0 
-5.687603 -1.622375 0.2608671 -0.01714849 -0.4050733 0.9141231 0 0 255 0 
-5.916054 -1.526528 0.2965879 -0.03848198 -0.451104 0.8916414 0 0 255 0 
-6.073524 -1.594389 0.2180433 0.267228 -0.3813223 0.8849759 0 0 255 0 
-6.211246 -1.598521 0.07765293 -0.5340493 -0.3874002 0.7514732 0 0 255 0 
-6.359936 -1.611425 -0.04034328 -0.4751394 -0.4092843 0.7789283 0 0 255 0 
-8.135807 -1.71112 -2.930707 0.4355768 -0.6673241 0.6041127 0 0 255 0 
-8.375668 -1.655673 -2.947453 -0.004571527 -0.4661484 0.8846945 0 0 255 0 
-8.409237 -1.804838 -3.070815 -0.06209654 -0.3645102 0.9291267 0 0 255 0 
-8.527042 -1.68984 -3.026793 -0.1868365 -0.4066613 0.8942698 0 0 255 0 
-8.689198 -1.718675 -3.085525 -0.02741623 -0.2727144 0.9617043 0 0 255 0 
-8.840954 -1.774183 -3.131673 -0.04207006 -0.3536562 0.9344291 0 0 255 0 
-8.957146 -1.666645 -2.889144 0.02066208 -0.7643252 0.6444995 0 0 255 0 
4.288872 -1.464943 -3.145101 0.6838563 0.01399739 0.7294829 0 0 255 0 
-0.5001678 -1.412253 0.4076853 -0.5542344 -0.52408 0.6466563 0 0 255 0 
-1.09557 -1.443485 0.3744507 -0.5691127 -0.3804291 0.7289612 0 0 255 0 
-5.511333 -1.450915 0.3657408 -0.3024033 -0.2022766 0.9314702 0 0 255 0 
-5.773647 -1.46677 0.3459978 0.3715736 -0.4371774 0.81903 0 0 255 0 
-6.302834 -1.466807 0.07343388 -0.5957048 -0.3600036 0.718006 0 0 255 0 
-8.339169 -1.505313 -2.891746 -0.2726836 -0.473458 0.8375453 0 0 255 0 
-8.238277 -1.552444 -2.774291 -0.5224034 -0.3138884 0.7928234 0 0 255 0 
-8.493813 -1.541253 -2.960153 -0.2633474 -0.3408683 0.9024726 0 0 255 0 
-8.551029 -1.602842 -2.971677 -0.5020662 -0.2597748 0.8248914 0 0 255 0 
-8.411274 -1.565514 -2.889623 0.1684976 -0.4422935 0.8809006 0 0 255 0 
-8.692425 -1.567929 -3.060487 -0.4366189 -0.2752357 0.8565096 0 0 255 0 
4.289135 -1.295958 -3.16043 0.6824343 -0.0310745 0.7302859 0 0 255 0 
4.087513 -1.347403 -2.726233 -0.6079087 -0.4704437 0.6396322 0 0 255 0 
0.4777374 -1.198876 0.523324 -0.7013686 -0.3953733 0.5930954 0 0 255 0 
-6.005146 -1.374688 0.3532858 0.05427209 -0.4736684 0.8790293 0 0 255 0 
-5.973774 -1.268269 0.3996935 0.05458379 -0.4384561 0.8970935 0 0 255 0 
-6.341743 -1.245894 0.1374445 -0.60931 -0.3052892 0.7318057 0 0 255 0 
-6.374405 -1.37224 0.05215549 -0.5821976 -0.3576598 0.7301542 0 0 255 0 
-8.344913 -1.400523 -2.776156 -0.5114094 -0.3306499 0.793178 0 0 255 0 
-8.518501 -1.436742 -2.891112 -0.5156632 -0.1912645 0.8351696 0 0 255 0 
-8.458706 -1.393726 -2.895766 -0.2736269 -0.301268 0.9134366 0 0 255 0 
-8.611301 -1.420851 -2.944583 -0.286114 -0.3675602 0.8848945 0 0 255 0 
-8.869156 -1.357982 -2.825728 0.8530582 -0.009507837 0.5217299 0 0 255 0 
4.400642 -1.148306 -2.591408 -0.3040271 -0.1759457 0.9362749 0 0 255 0 
4.280556 -1.206166 -2.690739 -0.6224051 -0.4542939 0.637361 0 0 255 0 
0.4999695 -1.057991 0.5724478 -0.6048895 -0.3722487 0.7039461 0 0 255 0 
-5.702141 -1.168655 0.460475 0.2040228 -0.4401136 0.8744574 0 0 255 0 
-5.846897 -1.205761 0.4344435 -0.104982 -0.3961053 0.9121835 0 0 255 0 
-5.962727 -1.128164 0.4213934 0.05080029 -0.1503577 0.9873254 0 0 255 0 
-6.090729 -1.189788 0.4181261 -0.1262672 -0.2816354 0.9511774 0 0 255 0 
-6.196705 -1.224556 0.2668543 -0.2909786 -0.4080244 0.8653598 0 0 255 0 
-6.304565 -1.11965 0.2264967 -0.4696268 -0.4156951 0.7788766 0 0 255 0 
-6.611095 -1.127968 -0.1477575 -0.6854163 -0.1523195 0.7120422 0 0 255 0 
