ply
format ascii 1.0
comment VCGLIB generated
element vertex 632
property float x
property float y
property float z
property float nx
property float ny
property float nz
property uchar red
property uchar green
property uchar blue
property uchar alpha
element face 0
property list uchar int vertex_indices
end_header
1.693928 0.03057571 -6.865458 0.9457182 -0.279928 0.1650978 100 100 100 255 
1.481991 0.02565451 -7.789759 0.948192 -0.2558848 0.1882915 62 62 62 255 
1.445148 0.1120012 -7.946966 0.9669949 -0.1441475 0.2101003 3 3 3 255 
1.430302 0.08268185 -8.350946 0.970663 0.1059875 0.2158231 0 0 0 255 
0.404213 -0.1486666 9.263833 0.9147054 0.08491892 -0.3950976 0 0 0 255 
0.4009247 -0.07035656 9.146348 0.9973847 0.06868041 0.02249199 0 0 0 255 
0.3770638 -0.1344216 9.004372 0.9928117 0.0472212 0.1099817 0 0 0 255 
0.3902931 -0.05784561 8.891516 0.9883837 0.0651007 0.1373275 3 3 3 255 
0.4138107 -0.1193826 8.772442 0.973722 0.1005785 0.2043261 107 107 107 255 
0.4112816 -0.1171702 8.768658 0.9872354 0.06914112 0.1434776 108 108 108 255 
0.4427147 -0.1722038 8.649667 0.9707952 0.1265959 0.2037876 131 131 131 255 
0.5465202 -0.107713 8.249454 0.9950212 -0.01198818 -0.0989418 130 130 130 255 
0.4347725 -0.1678662 8.126513 0.8630666 -0.5012572 -0.06210884 131 131 131 255 
0.5365067 -0.1279671 8.018747 0.9530741 -0.2655392 0.145387 131 131 131 255 
0.4931641 -0.05744545 7.733441 0.9993219 0.01932229 0.03131944 79 79 79 255 
0.5207443 -0.08892392 7.865242 0.9954354 0.0903197 -0.03082338 128 128 128 255 
0.503067 -0.1079623 7.59074 0.9930692 0.114179 0.02784687 61 61 61 255 
0.6242294 -0.06067483 7.412183 0.9993386 0.006780873 0.03572217 0 0 0 255 
0.5370293 -0.129823 7.249995 0.9980094 -0.03049293 0.05520049 0 0 0 255 
0.5422173 -0.05981834 7.125048 0.9834844 -0.09902796 0.1514982 0 0 0 255 
0.417408 -0.06927671 6.880353 0.9669145 0.0642553 -0.2468739 0 0 0 255 
0.3910027 -0.1345623 6.734771 0.9975221 0.06550679 -0.02565685 0 0 0 255 
1.21851 -0.1224436 5.04944 0.3935087 -0.7665592 0.5074808 49 49 49 255 
1.668209 -0.08425738 4.93012 0.4222299 -0.8526028 0.3078803 66 66 66 255 
1.923435 -0.08784102 4.943348 0.8355494 0.03196074 0.5484846 63 63 63 255 
2.022877 -0.06999864 4.71973 0.6962277 -0.5787189 0.4246772 65 65 65 255 
2.065823 -0.1630044 4.470701 0.4502579 -0.57544 0.6827418 72 72 72 255 
2.154823 -0.146299 4.324316 0.6931353 -0.584321 0.4220582 57 57 57 255 
2.173771 -0.1381985 4.163971 0.7420479 -0.5703934 0.3521577 53 53 53 255 
2.235104 -0.1147751 4.032652 0.8606443 -0.4584008 0.2217177 82 82 82 255 
2.279636 -0.1129009 3.883152 0.8497326 -0.4750822 0.2285851 64 64 64 255 
2.318073 -0.1051495 3.730738 0.8619092 -0.4693408 0.1919165 84 84 84 255 
2.357906 -0.09762694 3.577547 0.8573978 -0.481735 0.1811079 124 124 124 255 
2.395512 -0.08772482 3.425541 0.8692375 -0.4569253 0.1887971 90 90 90 255 
2.447598 -0.07965778 3.28199 0.8615817 -0.4713992 0.1883039 69 69 69 255 
2.48584 -0.07554881 3.128582 0.8590862 -0.4540453 0.236249 108 108 108 255 
2.533619 -0.06798907 2.982904 0.8500938 -0.4425336 0.2854908 150 150 150 255 
2.55928 -0.06516297 2.820288 0.8709549 -0.4502523 0.1967487 92 92 92 255 
2.604881 -0.05528258 2.672531 0.8682053 -0.4489245 0.2113911 90 90 90 255 
2.561657 -0.1752992 2.572023 0.849623 -0.4780163 0.2227995 155 155 155 255 
2.607796 -0.1728108 2.422676 0.8601401 -0.4468662 0.2459055 93 93 93 255 
2.689358 -0.05036889 2.369249 0.8677698 -0.4365746 0.2374386 77 77 77 255 
2.658279 -0.1694495 2.254267 0.8671455 -0.4559247 0.2004753 63 63 63 255 
2.69878 -0.160848 2.102345 0.8591111 -0.4598816 0.2245805 124 124 124 255 
2.732533 -0.1512389 1.966475 0.8781071 -0.4312007 0.2073495 80 80 80 255 
2.783619 -0.1454288 1.810209 0.8674049 -0.4534059 0.2050154 75 75 75 255 
2.809689 -0.1339274 1.656939 0.7982811 -0.5615916 0.2176268 81 81 81 255 
2.882988 -0.08324669 1.466505 0.8389921 -0.5190761 0.1632523 107 107 107 255 
2.916672 -0.06916134 1.315203 0.8834841 -0.4265171 0.1937481 115 115 115 255 
2.96574 -0.06138296 1.168612 0.8798029 -0.3943139 0.2654463 72 72 72 255 
3.016842 -0.04632203 1.040567 0.8550551 -0.4963469 0.1500696 60 60 60 255 
3.053722 -0.1501739 0.5866928 0.8266172 0.02280702 0.5623023 221 221 221 255 
3.170238 -0.1469584 0.489439 0.7548254 -0.2676148 0.5988489 235 235 235 255 
3.26009 -0.1439637 0.3759556 0.7110192 -0.3335733 0.6190155 236 236 236 255 
0.2835197 -0.1263603 -4.009626 0.9485558 -0.02980964 0.315202 226 226 226 255 
0.1707001 -0.205387 -4.164732 0.9742113 -0.177748 0.1389878 223 223 223 255 
3.451176 -0.1325336 -2.222658 0.652209 0.5135536 0.5575706 237 237 237 255 
3.496044 -0.04606728 -2.062025 0.8580719 0.1286593 0.4971507 232 232 232 255 
3.584789 -0.1297438 -2.298388 0.5916925 0.09383059 0.8006843 236 236 236 255 
3.706268 -0.1270533 -2.383615 0.6825736 0.004371291 0.730803 224 224 224 255 
3.899899 -0.1217463 -2.568207 0.8368359 0.1254369 0.5328895 149 149 149 255 
3.921436 -0.1208457 -2.704359 0.8538888 0.4573638 0.2483784 148 148 148 255 
3.865585 -0.1195734 -2.923689 0.9508203 -0.2331818 0.2038771 146 146 146 255 
3.334103 -0.05655591 -3.930014 0.9905396 0.01295996 -0.1366105 138 138 138 255 
3.452293 -0.1310538 -3.907537 0.991614 -0.002581646 -0.1292094 138 138 138 255 
1.976707 -0.1862886 -6.456717 0.9381256 -0.3130721 0.1480078 112 112 112 255 
1.651283 -0.05114125 -7.023066 0.9908175 -0.006727613 -0.1350362 110 110 110 255 
1.636955 -0.1307595 -7.18115 0.9800265 -0.00373625 0.1988308 98 98 98 255 
1.792248 -0.2027647 -7.207123 0.9805173 0.001522439 0.1964264 95 95 95 255 
1.655621 -0.05386452 -7.313217 0.9196492 0.3652615 0.1443212 90 90 90 255 
1.309231 -0.1303639 -8.186678 0.5652776 -0.7233615 0.3964959 38 38 38 255 
1.487354 -0.1724796 -8.33004 0.5711216 -0.7090732 0.413563 1 1 1 255 
1.623249 -0.06276636 -8.42758 0.5669693 -0.6796497 0.4654265 0 0 0 255 
1.700562 -0.1139768 -8.625029 0.7497824 -0.3749076 0.5452248 0 0 0 255 
0.3833694 -0.2863067 9.236369 0.9997171 -0.008443503 -0.02222639 0 0 0 255 
0.4045029 -0.2118959 9.130598 0.9991164 0.004731745 0.04174736 0 0 0 255 
0.3848763 -0.2791196 8.992039 0.9719976 0.1055536 0.2099482 3 3 3 255 
0.411499 -0.1958599 8.892434 0.9916988 0.0502606 0.1183519 35 35 35 255 
0.4366722 -0.2548193 8.758168 0.9704323 0.1068201 0.2164473 130 130 130 255 
0.4586983 -0.306424 8.632751 0.9732584 0.1315802 0.1882958 131 131 131 255 
0.4795914 -0.2214466 8.525149 0.9237441 0.3565522 0.1398873 131 131 131 255 
0.428688 -0.2271581 7.834268 0.7559865 -0.6440089 0.1172007 130 130 130 255 
0.4846687 -0.2240332 7.895356 0.9480078 -0.2809469 -0.1495009 128 128 128 255 
0.3826599 -0.2806205 7.655734 0.913447 -0.3992631 0.0787532 130 130 130 255 
0.5273552 -0.2037046 7.36944 0.9977878 0.06642513 0.002489179 51 51 51 255 
0.5362701 -0.2427621 7.1001 0.9459367 -0.3111033 0.09174567 1 1 1 255 
0.5420189 -0.2045971 6.947031 0.9990067 -0.02360937 0.03779599 0 0 0 255 
0.4880447 -0.3064767 6.844735 0.9044969 0.426033 -0.01952067 0 0 0 255 
0.5314217 -0.2907194 6.587554 0.9166925 -0.1015143 0.3864829 0 0 0 255 
0.5601234 -0.1980426 6.699287 0.9944707 0.05212035 -0.09116837 0 0 0 255 
0.4339256 -0.2868897 6.299397 0.8782332 -0.4690222 -0.0934062 0 0 0 255 
-0.4085884 -0.282066 4.422573 0.5790007 -0.8082181 0.1074277 35 35 35 255 
1.971317 -0.2002748 4.637541 0.7489669 -0.5995913 0.2820261 70 70 70 255 
2.036472 -0.2420463 4.390329 0.6764742 -0.6397189 0.3648868 45 45 45 255 
2.057655 -0.2779351 4.221441 0.4591102 -0.7113727 0.5321332 61 61 61 255 
2.083057 -0.2897632 3.95698 0.4559009 -0.6773345 0.5773842 59 59 59 255 
2.18185 -0.2336892 3.930235 0.8532282 -0.4735818 0.2184515 58 58 58 255 
2.24271 -0.2277589 3.788614 0.8563574 -0.4876703 0.1697871 66 66 66 255 
2.242046 -0.2292214 3.787333 0.8534437 -0.4939969 0.1661331 66 66 66 255 
2.280632 -0.2219275 3.636324 0.861228 -0.4601938 0.2156546 117 117 117 255 
2.318718 -0.213085 3.479202 0.8783283 -0.4402502 0.1863269 102 102 102 255 
2.356876 -0.2031798 3.327673 0.8706955 -0.4191363 0.2573192 82 82 82 255 
2.398212 -0.1992586 3.18437 0.8586659 -0.4598742 0.2262917 111 111 111 255 
2.405041 -0.3140491 2.93675 0.840398 -0.4802931 0.2510949 77 77 77 255 
2.446991 -0.1923501 3.02976 0.8673418 -0.4479893 0.2168483 142 142 142 255 
2.438091 -0.3044963 2.778044 0.8614056 -0.461499 0.2121295 95 95 95 255 
2.489574 -0.1946399 2.876181 0.8479171 -0.4827546 0.219051 70 70 70 255 
2.482899 -0.3031835 2.627691 0.8525364 -0.459762 0.2485961 133 133 133 255 
2.515881 -0.1830919 2.71929 0.8662101 -0.4636079 0.1864049 92 92 92 255 
2.530529 -0.2948937 2.480623 0.8560196 -0.4545351 0.2462285 131 131 131 255 
2.574409 -0.2923633 2.3102 0.8539435 -0.468189 0.2271098 55 55 55 255 
2.612526 -0.2925417 2.148596 0.8694589 -0.4562092 0.1895075 112 112 112 255 
2.652912 -0.282518 1.996557 0.8682725 -0.4557526 0.1959378 101 101 101 255 
2.694168 -0.2696825 1.868586 0.86394 -0.4544498 0.2169836 74 74 74 255 
2.732273 -0.2661879 1.712234 0.8388325 -0.5083953 0.1946639 89 89 89 255 
2.769405 -0.2544389 1.564484 0.8424249 -0.4997586 0.2013955 94 94 94 255 
2.843002 -0.1969249 1.360121 0.8892366 -0.4016199 0.2189941 101 101 101 255 
2.886593 -0.1869468 1.212278 0.8776333 -0.4210186 0.2291334 66 66 66 255 
2.814575 -0.3129796 1.263823 0.880741 -0.4453208 0.1611952 65 65 65 255 
2.922855 -0.1936834 1.020559 0.8441855 -0.4965163 0.2020438 15 15 15 255 
2.952911 -0.1918644 0.8610554 0.8577203 -0.4404069 0.2652487 0 0 0 255 
2.876926 -0.3138641 0.9083614 0.8630365 -0.4102889 0.2946709 0 0 0 255 
3.003349 -0.1886614 0.7162361 0.8437417 -0.390765 0.3679703 70 70 70 255 
2.928013 -0.3108664 0.7626343 0.8339523 -0.3525029 0.4245753 85 85 85 255 
3.069981 -0.1857214 0.586874 0.7949475 -0.2793868 0.5385177 230 230 230 255 
3.183739 -0.1827277 0.4937534 0.7162551 -0.1799698 0.6742316 235 235 235 255 
3.098583 -0.3052971 0.5147305 0.7979329 -0.2311587 0.5566583 233 233 233 255 
0.448185 -0.275 -3.972782 0.9666117 -0.2147208 0.1398496 226 226 226 255 
3.304848 -0.264643 -2.052542 -0.06341952 -0.1955679 0.9786366 225 225 225 255 
3.500774 -0.260296 -2.093763 0.8097574 -0.1959848 0.5530661 237 237 237 255 
3.587986 -0.2571512 -2.207521 0.8167167 -0.09891929 0.5684965 237 237 237 255 
3.877754 -0.2401855 -2.852728 0.9476584 -0.1809909 0.2630297 148 148 148 255 
3.658154 -0.2169303 -3.261057 0.9886478 -0.1082119 -0.1042351 146 146 146 255 
3.658154 -0.2169303 -3.261057 0.9886478 -0.1082119 -0.1042351 146 146 146 255 
3.544994 -0.2820765 -3.74531 0.9887079 -0.1447207 -0.03888005 142 142 142 255 
3.371716 -0.2159474 -4.072958 0.9912536 -0.1102044 -0.07259947 141 141 141 255 
1.977497 -0.3493686 -6.463034 0.9915022 0.02256715 -0.1281138 124 124 124 255 
1.686886 -0.3065396 -6.920959 0.9911711 0.0672451 -0.1142652 117 117 117 255 
1.959904 -0.2728373 -7.244257 0.9807155 0.02421978 0.1939315 92 92 92 255 
1.359066 -0.3540274 -8.675842 0.9335209 -0.3033349 0.1911199 1 1 1 255 
1.443974 -0.3496405 -8.839163 0.9617203 -0.1424238 0.2341153 0 0 0 255 
1.574451 -0.2498349 -8.730471 0.6791664 -0.6264337 0.3825095 0 0 0 255 
1.661373 -0.2834338 -8.881117 0.7412797 -0.5564597 0.3753082 0 0 0 255 
0.3892174 -0.4275168 9.234133 0.9995342 -0.02994672 -0.005778283 0 0 0 255 
0.3979416 -0.3531816 9.120343 0.999805 0.01936286 0.003756106 1 1 1 255 
0.4193687 -0.3528725 9.131015 0.9997111 -0.0103122 -0.02170312 0 0 0 255 
0.3991051 -0.4202043 8.995503 0.9671999 0.1092207 0.2293368 35 35 35 255 
0.4333534 -0.3306797 8.880404 0.8837525 0.209644 0.4183654 107 107 107 255 
0.4533997 -0.3898579 8.742874 0.97288 0.1626703 0.1644461 131 131 131 255 
0.5486717 -0.4124274 7.789136 0.8984215 -0.3001561 -0.3205379 127 127 127 255 
0.4876671 -0.3149544 7.544497 0.987175 -0.1350618 0.08511439 131 131 131 255 
0.6877098 -0.4266415 7.36434 0.9136232 0.4042727 -0.04308188 130 130 130 255 
0.5180893 -0.3261392 7.207304 0.9935381 0.1087892 0.03234801 96 96 96 255 
0.5184288 -0.3801977 6.981887 0.8769287 0.4791071 -0.03810695 43 43 43 255 
0.5252724 -0.3655035 6.70858 0.9997147 0.005368971 0.02325135 0 0 0 255 
0.61903 -0.4300216 6.607918 0.990809 0.02086177 0.1336471 0 0 0 255 
0.4819756 -0.4088154 6.144621 0.9652919 -0.09344448 -0.2438844 0 0 0 255 
1.70615 -0.3283228 4.788013 0.2955281 -0.8080546 0.5096178 48 48 48 255 
1.657505 -0.3711066 4.390411 0.4303936 -0.8071447 0.4040762 54 54 54 255 
1.877186 -0.3444122 4.440237 0.3363754 -0.6805255 0.6509504 52 52 52 255 
1.927357 -0.3550427 4.28826 0.3834224 -0.7785876 0.4967777 59 59 59 255 
1.947414 -0.4199964 4.017065 0.3319665 -0.7843327 0.524042 63 63 63 255 
2.084293 -0.4269572 3.909252 0.8210055 -0.5066786 0.2631101 53 53 53 255 
2.123562 -0.3534191 3.82102 0.4456485 -0.6003326 0.6640767 59 59 59 255 
2.105541 -0.3550544 3.809631 0.5317289 -0.5111076 0.6753021 59 59 59 255 
2.180962 -0.3454552 3.681892 0.7168392 -0.5234216 0.4606209 106 106 106 255 
2.184391 -0.3465354 3.68181 0.7739528 -0.5238077 0.3558406 106 106 106 255 
2.245945 -0.3297786 3.543318 0.8859439 -0.4278378 0.1790472 114 114 114 255 
2.27586 -0.3261829 3.390646 0.8655869 -0.4137325 0.2821089 99 99 99 255 
2.240093 -0.4468841 3.303617 0.862066 -0.470305 0.1888229 102 102 102 255 
2.274803 -0.4407365 3.145622 0.8547814 -0.4830019 0.1898904 134 134 134 255 
2.317883 -0.3221405 3.239511 0.8581294 -0.4588118 0.2304482 106 106 106 255 
2.323257 -0.437695 2.995291 0.8506352 -0.478604 0.2176187 87 87 87 255 
2.359451 -0.317829 3.088049 0.8593363 -0.4559985 0.23153 138 138 138 255 
2.358528 -0.4362128 2.830343 0.8491459 -0.483382 0.2128199 97 97 97 255 
2.356861 -0.4337751 2.837183 0.8526114 -0.4785187 0.2099351 94 94 94 255 
2.401592 -0.4289922 2.678947 0.8641399 -0.4577065 0.209204 139 139 139 255 
2.396233 -0.4275434 2.683004 0.8605043 -0.4648369 0.2084678 138 138 138 255 
2.448772 -0.4206882 2.531546 0.8684936 -0.4479551 0.2122603 124 124 124 255 
2.495861 -0.415642 2.366009 0.8602115 -0.448604 0.2424643 51 51 51 255 
2.534027 -0.4171479 2.207163 0.8575911 -0.4685594 0.2121063 82 82 82 255 
2.570095 -0.4120066 2.050129 0.8561018 -0.4765375 0.2000056 121 121 121 255 
2.612675 -0.3935965 1.926916 0.8534894 -0.4780473 0.2074243 84 84 84 255 
2.654007 -0.3900678 1.772371 0.8542814 -0.4695882 0.2229104 85 85 85 255 
2.691833 -0.3843726 1.615389 0.8532681 -0.4850348 0.1915024 126 126 126 255 
2.736519 -0.3703386 1.467695 0.873875 -0.4491367 0.186059 122 122 122 255 
2.775379 -0.3582398 1.314186 0.8912542 -0.4238349 0.1613368 70 70 70 255 
2.826763 -0.3374072 1.173065 0.8613834 -0.4958733 0.1101217 44 44 44 255 
2.800579 -0.3953118 0.9861546 0.8701451 -0.4004441 0.2872119 0 0 0 255 
2.857677 -0.433239 0.8078518 0.8227948 -0.3275279 0.4644719 107 107 107 255 
2.92532 -0.4300137 0.6747532 0.8409268 -0.3400576 0.4209545 229 229 229 255 
3.035671 -0.4276368 0.5548668 0.7930412 -0.2154979 0.5697775 231 231 231 255 
3.270138 -0.4241396 0.3476315 0.9528626 -0.2928077 -0.07947376 233 233 233 255 
3.15369 -0.3719984 -1.946257 0.4346873 0.2423607 0.8673565 229 229 229 255 
3.356049 -0.3663969 -1.995287 0.9251966 0.3738226 0.06532443 238 238 238 255 
3.458092 -0.3859085 -2.20944 0.6366568 0.04346947 0.7699212 237 237 237 255 
3.574265 -0.383065 -2.294348 0.5839205 0.06104458 0.8095119 207 207 207 255 
3.80291 -0.4359815 -2.602705 0.905849 0.1492998 0.3964164 149 149 149 255 
3.80291 -0.4359815 -2.602705 0.905849 0.1492998 0.3964164 149 149 149 255 
3.581593 -0.4296484 -3.692835 0.9841563 -0.105468 -0.1425185 145 145 145 255 
3.625046 -0.3475864 -3.547033 0.988806 -0.09363606 -0.1161609 145 145 145 255 
3.387558 -0.4440185 -4.098997 0.9845313 -0.1046513 -0.1405222 142 142 142 255 
3.12859 -0.4599806 -4.790457 0.9900633 0.004552416 -0.1405464 135 135 135 255 
2.094143 -0.4359896 -6.501238 0.9768072 -0.1253951 0.1735606 117 117 117 255 
2.906185 -0.4890669 -5.373095 0.9942669 0.001567502 -0.1069172 129 129 129 255 
3.152721 -0.4005566 -5.128344 0.9928147 0.002461743 -0.1196337 127 127 127 255 
2.904785 -0.4853405 -5.375277 0.9936836 0.00613537 -0.1120471 129 129 129 255 
2.029667 -0.5099297 -6.936682 0.9414775 -0.3008291 0.1520607 109 109 109 255 
2.165813 -0.5141749 -6.556112 0.9911911 -0.001119021 -0.1324347 123 123 123 255 
1.287613 -0.4928654 -8.659472 0.788376 -0.5315901 0.309636 43 43 43 255 
1.588337 -0.4218609 -8.999784 0.6733527 -0.6918721 0.2605933 0 0 0 255 
1.646427 -0.4347184 -9.206284 0.6536167 -0.71745 0.2409365 0 0 0 255 
0.3868523 -0.4976131 9.357283 0.9990889 -0.04102594 -0.01179993 0 0 0 255 
0.4204941 -0.4940488 9.129124 0.9980438 -0.02045724 -0.05907458 2 2 2 255 
0.4159508 -0.5542361 8.979493 0.9663066 0.1318575 0.2210549 108 108 108 255 
0.4469261 -0.4559562 8.860371 0.9475957 0.1367959 0.2887033 130 130 130 255 
0.5049591 -0.5135919 8.73708 0.975217 0.08293294 0.2051173 131 131 131 255 
0.5146217 -0.4409978 8.632755 0.5916956 -0.5335275 0.6043549 131 131 131 255 
0.4536705 -0.5334304 7.356794 0.9853374 -0.1072146 0.1327227 130 130 130 255 
0.4366684 -0.4534799 7.46891 0.9413987 -0.07513351 0.3288191 130 130 130 255 
0.4536705 -0.5334304 7.356794 0.9853374 -0.1072146 0.1327227 130 130 130 255 
0.5102577 -0.5330938 7.421079 0.7659115 0.3304082 0.551552 131 131 131 255 
0.5725441 -0.5680424 7.248638 0.9977494 -0.06576598 0.0130659 130 130 130 255 
0.5663338 -0.4649844 7.158466 0.9666564 0.2447409 -0.07534152 130 130 130 255 
0.4391518 -0.5337154 6.96383 0.5861535 -0.73386 0.3433249 130 130 130 255 
0.5154915 -0.5212533 6.727634 0.9998024 -0.006749606 0.01869199 66 66 66 255 
0.5118065 -0.4504311 6.852388 0.9998764 0.0005700821 0.0156633 53 53 53 255 
0.5389481 -0.4978597 6.455159 0.9988765 -0.03561057 0.03126058 0 0 0 255 
0.5714455 -0.4737726 6.358023 0.9940689 -0.09548958 0.05204475 0 0 0 255 
0.5621147 -0.5501648 6.224526 0.9940667 -0.06446688 0.0876115 0 0 0 255 
-0.3448563 -0.4873276 3.904341 0.8193452 -0.433667 0.3749737 61 61 61 255 
-0.380291 -0.6084114 3.766493 0.7972065 -0.4720284 0.3763646 27 27 27 255 
-0.1870155 -0.5718941 3.75922 0.7123756 -0.5285264 0.4617142 55 55 55 255 
1.649052 -0.4615011 4.589342 0.6201732 -0.772392 0.1370926 51 51 51 255 
0.9585609 -0.4926119 3.848984 0.3851193 -0.8533826 0.3513127 50 50 50 255 
1.227741 -0.5671902 3.756725 0.3331408 -0.7836671 0.5242925 84 84 84 255 
1.227741 -0.5671902 3.756725 0.3331408 -0.7836671 0.5242925 84 84 84 255 
1.227741 -0.5671902 3.756725 0.3331408 -0.7836671 0.5242925 84 84 84 255 
1.849171 -0.545481 3.900133 0.508252 -0.8355287 0.2087356 75 75 75 255 
2.079399 -0.4929357 3.749844 0.7895204 -0.6077607 -0.08535478 91 91 91 255 
2.103516 -0.4795954 3.5954 0.6724265 -0.6210502 0.4026639 120 120 120 255 
2.124508 -0.4780289 3.598831 0.4533101 -0.6685505 0.589534 122 122 122 255 
2.191719 -0.4551954 3.453598 0.8308553 -0.4506219 0.3265273 112 112 112 255 
2.182621 -0.5676971 3.198557 0.7996129 -0.5475561 0.2465782 126 126 126 255 
2.230301 -0.5623351 3.047514 0.8553051 -0.4762957 0.2039492 92 92 92 255 
2.272449 -0.5584213 2.894129 0.855449 -0.4678606 0.2220656 93 93 93 255 
2.315182 -0.5533109 2.742502 0.861656 -0.452331 0.2300991 148 148 148 255 
2.363979 -0.5455452 2.585516 0.8709791 -0.4125131 0.2668837 96 96 96 255 
2.408901 -0.5368246 2.426764 0.8799537 -0.4254188 0.2114228 51 51 51 255 
2.451565 -0.5382594 2.271196 0.8401483 -0.4871745 0.2383534 56 56 56 255 
2.493088 -0.5365796 2.109575 0.8525164 -0.4738081 0.2207274 121 121 121 255 
2.53709 -0.5292305 1.974367 0.8518053 -0.4765857 0.2174692 94 94 94 255 
2.567089 -0.5187615 1.815042 0.8731309 -0.4497182 0.1881339 73 73 73 255 
2.607563 -0.5122778 1.660295 0.8581312 -0.4739155 0.1975177 141 141 141 255 
2.647274 -0.4994586 1.509211 0.8842675 -0.4248718 0.1937887 128 128 128 255 
2.697559 -0.4852897 1.364229 0.8939165 -0.4032596 0.1956878 70 70 70 255 
2.662251 -0.5984788 1.259268 0.8729723 -0.4652832 0.1463875 29 29 29 255 
2.746475 -0.4683524 1.221352 0.8788521 -0.4687151 0.08902019 37 37 37 255 
2.698238 -0.5600139 1.122263 0.874359 -0.4446708 0.1943276 1 1 1 255 
2.784298 -0.5556574 0.847887 0.8247082 -0.3281091 0.4606531 134 134 134 255 
2.721909 -0.5572789 0.9601917 0.853853 -0.400366 0.3326294 4 4 4 255 
2.73439 -0.5576741 0.9925671 0.8718647 -0.4348617 0.2252688 1 1 1 255 
2.972023 -0.5483621 0.6256008 0.7725716 -0.1863617 0.6069614 228 228 228 255 
2.780087 -0.4862561 -0.5328083 0.9720596 -0.225294 0.06588778 230 230 230 255 
3.188213 -0.6197453 -1.958029 0.7335628 0.02440969 0.6791826 238 238 238 255 
3.283386 -0.4911675 -1.96163 0.8582063 0.3082802 0.4104197 238 238 238 255 
3.268406 -0.6178065 -2.084532 0.5763856 0.08931205 0.8122821 238 238 238 255 
3.431538 -0.5348068 -2.085821 0.8122423 -0.2468418 0.528517 238 238 238 255 
3.515465 -0.5121657 -2.247732 0.5303863 0.1005152 0.8417753 193 193 193 255 
3.450405 -0.4922285 -3.45376 0.9828568 -0.1645316 -0.08319387 151 151 151 255 
3.463051 -0.5734338 -3.54529 0.9827724 -0.1146561 -0.144955 151 151 151 255 
3.406815 -0.5859967 -3.826365 0.9804783 -0.1390862 -0.1389829 151 151 151 255 
3.480289 -0.5029561 -3.684225 0.9869655 -0.1355055 -0.08681864 148 148 148 255 
3.363987 -0.5245723 -4.22846 0.9872778 -0.07291624 -0.1412985 142 142 142 255 
3.371311 -0.5989583 -4.098881 0.9850073 -0.09978339 -0.1407251 146 146 146 255 
3.403423 -0.5157747 -3.958166 0.9821418 -0.1268262 -0.1389739 146 146 146 255 
3.346424 -0.6032518 -4.355917 0.9889204 -0.04462387 -0.1415817 142 142 142 255 
3.136982 -0.616376 -4.789986 0.9897099 0.02301043 -0.141225 139 139 139 255 
3.10228 -0.5361667 -4.934546 0.9924545 0.00684809 -0.1224203 135 135 135 255 
3.164318 -0.5573201 -5.119139 0.9907429 -0.0007770779 -0.1357461 131 131 131 255 
2.134739 -0.6683558 -6.849516 0.9937353 -0.0008434164 -0.1117516 122 122 122 255 
2.031071 -0.586987 -7.073509 0.9781551 -0.09247648 0.1861744 111 111 111 255 
1.43417 -0.5467086 -8.891623 0.4962692 -0.7397359 0.4544305 0 0 0 255 
1.303539 -0.6551039 -9.005955 0.9079601 -0.3770058 0.1829583 7 7 7 255 
1.441986 -0.564045 -9.162436 0.7479712 -0.5533521 0.3665237 0 0 0 255 
1.545544 -0.571933 -9.350046 0.7087627 -0.6364158 0.3043502 0 0 0 255 
0.400425 -0.5932507 9.425248 0.9942327 -0.03602154 -0.1010167 0 0 0 255 
0.3525124 -0.5696257 9.237354 0.9527802 0.1591083 0.2586393 0 0 0 255 
0.4057274 -0.6319571 9.132334 0.9999806 -0.005641412 -0.002551496 16 16 16 255 
0.4324837 -0.5934824 8.850396 0.9875003 0.07218891 0.140112 131 131 131 255 
0.4580498 -0.6517459 8.727318 0.9359856 0.3386248 -0.0962525 131 131 131 255 
0.4647369 -0.646164 7.12369 0.8154908 -0.5196486 0.2548314 130 130 130 255 
0.4529533 -0.6676674 6.682632 0.9988039 0.04164035 -0.02561992 127 127 127 255 
0.5051613 -0.5994643 6.840565 0.9939213 -0.1092871 -0.01328668 130 130 130 255 
0.5155144 -0.5882709 6.599071 0.9991605 0.02950003 0.0284141 73 73 73 255 
0.5053177 -0.5848699 6.423755 0.8704648 0.4909841 -0.03500265 8 8 8 255 
0.5781898 -0.6402171 6.119605 0.9722177 -0.1974167 0.1257769 0 0 0 255 
0.5551949 -0.7061881 5.924472 0.9926324 -0.02499839 0.1185558 0 0 0 255 
0.628952 -0.5976329 5.986178 0.915614 -0.3893781 0.1001807 0 0 0 255 
0.5993309 -0.6642551 5.819957 0.9735844 -0.2160387 0.07388884 0 0 0 255 
-0.254406 -0.7149807 3.662603 0.3345929 -0.6640667 0.6686265 15 15 15 255 
-0.2521591 -0.6876177 3.652348 0.3738432 -0.7867392 0.4912045 18 18 18 255 
-0.004619598 -0.6293245 3.655794 0.5359812 -0.622839 0.5699073 53 53 53 255 
0.6923828 -0.6854401 3.483278 0.4464265 -0.8462708 0.290739 94 94 94 255 
1.000828 -0.7145061 3.544638 0.2863214 -0.7197688 0.632418 76 76 76 255 
1.000828 -0.7145061 3.544638 0.2863214 -0.7197688 0.632418 76 76 76 255 
1.67461 -0.6310467 3.737059 0.3629299 -0.7825503 0.5058619 120 120 120 255 
1.67461 -0.6310467 3.737059 0.3629299 -0.7825503 0.5058619 120 120 120 255 
1.759602 -0.6353397 3.840469 0.2843458 -0.8152675 0.5044658 122 122 122 255 
1.768192 -0.6970946 3.557829 0.2648247 -0.8037611 0.532762 95 95 95 255 
1.798679 -0.6579756 3.730791 0.4121742 -0.850087 0.3278177 109 109 109 255 
1.761372 -0.6587559 3.711761 0.3573167 -0.8274587 0.4331707 109 109 109 255 
1.999954 -0.6133431 3.47954 0.519757 -0.7679883 0.3742262 118 118 118 255 
2.064072 -0.6810326 3.263142 0.4420349 -0.5997704 0.6669933 125 125 125 255 
2.124973 -0.6874093 3.092981 0.7974461 -0.5739276 0.1862415 104 104 104 255 
2.172092 -0.6818926 2.936296 0.7522403 -0.5413938 0.3755357 100 100 100 255 
2.237667 -0.6753945 2.784626 0.8736628 -0.4087602 0.2638721 147 147 147 255 
2.232613 -0.6775727 2.795973 0.8646131 -0.4243316 0.269049 148 148 148 255 
2.296371 -0.6721874 2.6499 0.8676217 -0.3284174 0.3733277 76 76 76 255 
2.331642 -0.6642468 2.491533 0.8609642 -0.4727809 0.1876665 53 53 53 255 
2.364307 -0.6598672 2.328482 0.8470824 -0.4969853 0.188302 49 49 49 255 
2.40588 -0.660934 2.172613 0.8456876 -0.4695684 0.2536096 99 99 99 255 
2.451859 -0.657115 2.021255 0.85741 -0.4590408 0.2326583 126 126 126 255 
2.494976 -0.6462637 1.870955 0.873723 -0.4449884 0.1964486 70 70 70 255 
2.529083 -0.6354226 1.71195 0.8624521 -0.4635278 0.2032682 130 130 130 255 
2.571594 -0.6280172 1.558571 0.8819357 -0.4260873 0.2015879 134 134 134 255 
2.581264 -0.7288327 1.310219 0.877959 -0.458113 0.1389934 24 24 24 255 
2.621891 -0.6149831 1.413565 0.8869657 -0.4166197 0.1992997 74 74 74 255 
2.646992 -0.6007904 1.254761 0.8840566 -0.42492 0.1946443 29 29 29 255 
2.652969 -0.6809843 1.02492 0.8516334 -0.410261 0.3261982 5 5 5 255 
2.714661 -0.6782479 0.89044 0.8035342 -0.3005405 0.5138178 154 154 154 255 
2.714775 -0.6778339 0.8642139 0.7990474 -0.2891833 0.5271581 180 180 180 255 
2.915112 -0.6710725 0.6675091 0.7633402 -0.1972316 0.6151511 226 226 226 255 
2.926666 -0.6718293 0.6806698 0.7065515 -0.161423 0.6890045 226 226 226 255 
2.984077 -0.6685374 0.5438385 0.8764051 -0.1759416 0.4482838 227 227 227 255 
2.747913 -0.7227067 -0.3040829 0.9637336 -0.2610287 0.05550575 225 225 225 255 
2.767887 -0.6763777 -0.4427433 0.9810237 -0.1806248 0.07047451 226 226 226 255 
2.290516 -0.7128717 -1.18593 0.9717692 -0.2311673 -0.04717141 237 237 237 255 
2.266254 -0.6331734 -1.300989 0.8252236 -0.4777561 0.3012541 237 237 237 255 
3.248455 -0.7442476 -2.002012 0.6156032 0.07326824 0.7846431 238 238 238 255 
3.451073 -0.6427332 -2.199099 0.5605132 0.07059291 0.8251305 179 179 179 255 
3.329731 -0.683632 -3.106165 0.7461308 -0.3912096 0.5387428 137 137 137 255 
3.098644 -0.7190899 -3.852377 0.9496379 -0.29099 -0.1162402 143 143 143 255 
3.263992 -0.6573498 -3.851469 0.9518754 -0.2839007 -0.1154648 149 149 149 255 
3.378948 -0.6698719 -3.953037 0.982065 -0.1272028 -0.1391693 148 148 148 255 
3.362007 -0.6821448 -4.222773 0.9888262 -0.04190048 -0.1430604 146 146 146 255 
3.359699 -0.6796811 -4.223902 0.9892654 -0.03203826 -0.1425721 146 146 146 255 
3.32888 -0.6807479 -4.485952 0.9899246 -0.02601673 -0.1391828 143 143 143 255 
3.343079 -0.7585422 -4.354841 0.9897229 -0.01101826 -0.1425709 147 147 147 255 
3.3241 -0.7626159 -4.597057 0.9866607 -0.09226994 -0.1341112 143 143 143 255 
3.192944 -0.7102833 -5.064947 0.9832259 -0.1581658 -0.09082687 135 135 135 255 
2.786732 -0.7214688 -5.735262 0.9962509 -0.0593622 -0.0629259 129 129 129 255 
2.772175 -0.7240618 -5.738333 0.9949481 -0.08331164 -0.05600595 129 129 129 255 
2.765358 -0.7996087 -5.842482 0.9691086 -0.2464455 -0.009637892 130 130 130 255 
2.046345 -0.8333951 -6.952244 0.9937832 -0.01066119 -0.1108182 128 128 128 255 
1.965828 -0.7520444 -7.181929 0.9279181 -0.3446647 0.1420328 113 113 113 255 
1.538174 -0.7253791 -7.930182 0.9648848 -0.1651456 0.2042662 101 101 101 255 
1.704807 -0.8361901 -7.97435 0.9525201 -0.2425705 0.1840218 99 99 99 255 
1.226871 -0.7913281 -9.230282 0.9010201 -0.4099385 0.1418169 5 5 5 255 
1.501507 -0.7139218 -9.443394 0.7215248 -0.4317013 0.5413275 0 0 0 255 
0.4462929 -0.7399675 9.425316 0.9755018 -0.06807777 -0.2091943 0 0 0 255 
0.3709068 -0.7267205 9.214916 0.8989774 0.1858721 0.3965993 2 2 2 255 
0.4223595 -0.7590334 9.095616 0.9142971 0.1660238 0.3694559 102 102 102 255 
0.4654045 -0.79357 8.975364 0.9206756 0.1795858 0.3465631 131 131 131 255 
0.4931679 -0.7357888 8.850778 0.9114017 0.2009989 0.3590906 131 131 131 255 
0.6203079 -0.710356 7.25455 0.6394603 0.4864192 0.5953873 129 129 129 255 
0.4450188 -0.7460244 6.797096 0.9674003 -0.2209995 0.1236746 130 130 130 255 
0.4334106 -0.8134942 6.661897 0.8912683 -0.3861468 0.2377635 130 130 130 255 
0.4698219 -0.7344025 6.563462 0.8703749 -0.3680479 0.3270911 130 130 130 255 
0.5392876 -0.7286502 6.431485 0.9995557 0.02786516 0.01057574 119 119 119 255 
0.5473824 -0.7816281 6.162078 0.9892624 0.1400252 -0.0418523 54 54 54 255 
0.6454735 -0.7379024 6.049625 0.9435585 -0.3299921 0.02832726 1 1 1 255 
0.5554199 -0.8484156 5.926445 0.9995606 0.02806474 0.009525299 17 17 17 255 
0.6679573 -0.7751068 5.815164 0.7262078 -0.6076018 0.3216221 0 0 0 255 
0.6330605 -0.7663556 5.682398 0.8805708 -0.232514 0.4129548 0 0 0 255 
0.5822029 -0.8566959 5.502621 0.986753 -0.1594553 0.02987945 0 0 0 255 
-0.476429 -0.7773714 3.683924 0.4606251 0.0527565 0.8860252 5 5 5 255 
0.009334564 -0.7790812 3.575464 0.399401 -0.7886186 0.467503 27 27 27 255 
-0.06392288 -0.8884121 3.203451 0.8859854 -0.4270382 0.1807405 37 37 37 255 
0.2622261 -0.8030064 3.383635 0.4253023 -0.8191819 0.3847843 54 54 54 255 
0.3197098 -0.8038616 3.203684 0.747558 -0.6381208 0.184278 63 63 63 255 
0.9913521 -0.7590708 3.449554 0.3512166 -0.8203003 0.4513909 68 68 68 255 
1.019627 -0.7584201 3.463778 0.3582474 -0.8145697 0.4562181 68 68 68 255 
1.350052 -0.8043188 3.438971 0.5719491 -0.6287592 0.5268165 63 63 63 255 
1.589195 -0.844613 3.358702 0.3595024 -0.7758785 0.5184293 103 103 103 255 
1.872349 -0.788658 3.335005 0.5218484 -0.6708627 0.526893 111 111 111 255 
2.004864 -0.785683 3.303289 0.7291194 -0.5308781 0.4319167 125 125 125 255 
2.006245 -0.8528231 3.056181 0.4065903 -0.6275946 0.6639345 105 105 105 255 
2.038013 -0.8487903 3.007456 0.7388095 -0.6189708 0.266524 116 116 116 255 
2.151615 -0.8006545 2.829535 0.8537816 -0.467661 0.2288004 134 134 134 255 
2.232738 -0.7924346 2.699446 0.8635435 -0.327864 0.3831417 59 59 59 255 
2.221832 -0.7964503 2.711916 0.8622885 -0.323086 0.3899649 64 64 64 255 
2.24176 -0.7937362 2.548836 0.8777406 -0.4432953 0.1818235 50 50 50 255 
2.240055 -0.7948152 2.5455 0.8778644 -0.4463592 0.1735412 51 51 51 255 
2.287537 -0.7849668 2.395531 0.8584181 -0.4826995 0.1735479 47 47 47 255 
2.281696 -0.785401 2.389746 0.85707 -0.4891447 0.1617654 47 47 47 255 
2.31728 -0.782602 2.228918 0.8161561 -0.464545 0.3436372 70 70 70 255 
2.315891 -0.7844281 2.23723 0.8172843 -0.4611459 0.3455282 67 67 67 255 
2.369122 -0.7814999 2.077221 0.8501555 -0.4687224 0.2398627 148 148 148 255 
2.414791 -0.7776777 1.925428 0.8706039 -0.432266 0.2349363 82 82 82 255 
2.453953 -0.761955 1.770027 0.8600396 -0.4649467 0.2101358 128 128 128 255 
2.457111 -0.8717806 1.514076 0.8765178 -0.4404534 0.1942086 87 87 87 255 
2.488655 -0.7547324 1.612055 0.8648536 -0.4558199 0.2103713 136 136 136 255 
2.496201 -0.8578314 1.360647 0.8728079 -0.4636818 0.152333 21 21 21 255 
2.536526 -0.8453518 1.207388 0.8707366 -0.4635459 0.1641429 0 0 0 255 
2.618572 -0.7768325 1.146297 0.8604674 -0.4936359 0.1261718 0 0 0 255 
2.578674 -0.8032657 1.027571 0.8345237 -0.3499229 0.4255868 27 27 27 255 
2.646568 -0.8013478 0.9305859 0.8030525 -0.3033718 0.5129054 177 177 177 255 
2.664116 -0.8005143 0.9139881 0.7475673 -0.2028039 0.6324658 196 196 196 255 
2.736511 -0.7985988 0.7826691 0.7877951 -0.2687253 0.5542246 221 221 221 255 
2.770348 -0.7970641 0.6345234 0.7868942 -0.5083764 0.3497856 223 223 223 255 
2.770451 -0.7967904 0.6331577 0.7718054 -0.549092 0.3206476 223 223 223 255 
2.729248 -0.8160049 -0.4164925 0.9800584 -0.1862358 0.06929031 224 224 224 255 
2.791401 -0.7617104 -0.6103802 0.9789838 -0.1918495 0.06916061 226 226 226 255 
2.175755 -0.9019274 -1.465193 0.9428034 -0.03724117 0.3312613 235 235 235 255 
3.013241 -0.9070047 -1.818525 0.8249021 -0.07183523 0.5606927 237 237 237 255 
3.084923 -0.9053613 -1.954309 0.5503815 0.1093361 0.8277228 237 237 237 255 
3.056339 -0.7783967 -1.879028 0.8265201 0.05435683 0.5602758 238 238 238 255 
3.233345 -0.784318 -1.947989 0.7137689 -0.2577271 0.6512369 238 238 238 255 
3.395016 -0.7707936 -2.153124 0.5590878 0.07080305 0.8260794 166 166 166 255 
3.05727 -0.8141602 -3.973276 0.9450316 -0.3079017 -0.1100556 149 149 149 255 
3.041996 -0.9246448 -4.398943 0.957807 -0.2873776 0.004496306 150 150 150 255 
3.357067 -0.8373672 -4.227697 0.9899293 -0.03132129 -0.1380581 148 148 148 255 
3.203743 -0.9197563 -4.286549 0.9822959 -0.1312679 -0.1336565 149 149 149 255 
3.297802 -0.8368131 -4.494959 0.9907507 -0.01113595 -0.1352358 147 147 147 255 
3.299084 -0.9150804 -4.409323 0.9886802 -0.1125965 -0.09916422 149 149 149 255 
3.299732 -0.8452293 -4.726641 0.9865906 -0.09369253 -0.1336399 144 144 144 255 
3.299053 -0.9187962 -4.600203 0.9821301 -0.1369118 -0.1291355 147 147 147 255 
3.300808 -0.9183904 -4.598852 0.9848525 -0.1111918 -0.1330475 147 147 147 255 
2.896618 -0.8910865 -5.815107 0.9893857 -0.06689204 -0.1289967 130 130 130 255 
1.69997 -0.9849304 -7.931694 0.9440144 -0.2810327 0.1727926 107 107 107 255 
1.653934 -0.9101473 -8.152985 0.9582521 -0.210555 0.1934409 98 98 98 255 
0.4323158 -0.8877025 9.429327 0.9764222 -0.07351918 -0.2029612 0 0 0 255 
0.4983482 -0.9208895 8.951219 0.9205292 0.1698459 0.3518202 131 131 131 255 
0.4848709 -0.8622593 8.821246 0.9496483 0.1096494 0.2935045 131 131 131 255 
0.7098503 -0.8778661 6.945442 0.9497592 -0.2629774 -0.1697074 129 129 129 255 
0.4903984 -0.9248198 6.621944 0.9636853 -0.2635784 0.04285198 130 130 130 255 
0.4773216 -0.9026949 6.40099 0.9277624 -0.3638943 0.08269635 130 130 130 255 
0.4989891 -0.8686543 6.251639 0.9332509 -0.3446622 0.1012485 130 130 130 255 
0.5691719 -0.8800908 6.0722 0.9346439 0.3316518 -0.1282466 104 104 104 255 
0.5060616 -0.978209 6.118909 0.9772921 -0.2059726 0.04974976 130 130 130 255 
0.521637 -0.9297196 5.899555 0.9986693 0.01393546 0.04965079 83 83 83 255 
0.5525093 -0.8645618 5.748011 0.9665619 0.2539933 0.03528586 1 1 1 255 
0.5580559 -0.9343716 5.62195 0.999805 0.008030768 0.01801988 1 1 1 255 
0.5162849 -0.9235921 5.360973 0.9897081 0.1114352 -0.08977935 0 0 0 255 
0.5204468 -0.9920464 5.233322 0.9948448 0.09825005 -0.0251177 0 0 0 255 
0.5678635 -0.984702 5.23185 0.9921189 -0.09272029 0.08427641 0 0 0 255 
-0.5492592 -1.035699 3.050602 0.6049126 -0.7466426 0.2767766 10 10 10 255 
0.2260017 -0.9325097 3.080881 0.3933289 -0.7837256 0.4806924 62 62 62 255 
0.5371323 -0.9141916 2.990627 0.2650615 -0.7893264 0.5538101 74 74 74 255 
0.5948029 -0.9421636 2.995783 0.3845792 -0.7740356 0.5029594 67 67 67 255 
0.9966087 -0.9838325 3.110151 0.3552557 -0.7995831 0.4842102 62 62 62 255 
0.9966087 -0.9838325 3.110151 0.3552557 -0.7995831 0.4842102 62 62 62 255 
1.62006 -0.8989788 3.281408 0.3600197 -0.775202 0.5190818 109 109 109 255 
1.483524 -0.8996587 3.240805 0.2571698 -0.7952466 0.5490397 115 115 115 255 
1.777725 -0.8857445 3.313841 0.270846 -0.7516236 0.6014175 118 118 118 255 
1.849339 -0.921638 3.101671 0.4543042 -0.8433968 0.2868602 119 119 119 255 
1.678555 -0.9733334 3.064806 0.3659083 -0.8107511 0.4569392 94 94 94 255 
1.746983 -0.9418999 3.019548 0.4895731 -0.8282921 0.2724888 111 111 111 255 
1.834179 -1.001794 2.902237 0.4419587 -0.8389637 0.3175096 81 81 81 255 
2.110706 -0.9215899 2.732557 0.421083 -0.4740385 0.7732888 52 52 52 255 
2.077465 -0.9211245 2.873396 0.8495038 -0.3865289 0.3590795 109 109 109 255 
2.152092 -0.9246367 2.593653 0.6358486 -0.6324938 0.4423214 45 45 45 255 
2.153698 -0.9233671 2.596853 0.642884 -0.63006 0.4355743 45 45 45 255 
2.195141 -0.913265 2.446005 0.7832793 -0.5372829 0.3127286 48 48 48 255 
2.194401 -0.912629 2.447409 0.776731 -0.5419328 0.3209304 48 48 48 255 
2.24287 -0.9077404 2.291695 0.8442545 -0.4739498 0.25021 52 52 52 255 
2.291485 -0.904619 2.140381 0.8411727 -0.4289436 0.3292945 137 137 137 255 
2.336479 -0.903376 1.98665 0.860003 -0.4539106 0.2331514 107 107 107 255 
2.335697 -0.9041988 1.977037 0.8571296 -0.4593824 0.2330161 105 105 105 255 
2.402203 -0.8839713 1.658709 0.8589404 -0.4723166 0.1978327 129 129 129 255 
2.323307 -1.01059 1.71817 0.8391521 -0.4919952 0.2318714 121 121 121 255 
2.371059 -0.8968786 1.819681 0.8659333 -0.4673592 0.1781422 109 109 109 255 
2.377323 -1.000838 1.564631 0.8627948 -0.461599 0.2061828 107 107 107 255 
2.414349 -0.9873847 1.41223 0.8706518 -0.4722923 0.1374924 28 28 28 255 
2.485413 -0.9221694 1.238527 0.8863048 -0.4368179 0.153796 0 0 0 255 
2.48008 -0.9224603 1.231945 0.8845359 -0.4263517 0.1892617 0 0 0 255 
2.518864 -0.9267164 1.073267 0.8518398 -0.3937176 0.3454779 45 45 45 255 
2.511597 -0.9257914 1.069166 0.8521864 -0.3906053 0.3481452 45 45 45 255 
2.583786 -0.9239987 0.9405918 0.8065654 -0.2901014 0.5150664 209 209 209 255 
2.59367 -0.9227934 0.9493427 0.7892164 -0.2585424 0.5570391 208 208 208 255 
2.577763 -0.9246635 0.9336319 0.7254066 -0.209337 0.6557155 209 209 209 255 
2.672123 -0.9215814 0.8225632 0.7863889 -0.2734959 0.5538884 218 218 218 255 
2.755474 -0.9178997 0.7048588 0.8322588 -0.3060985 0.4622216 220 220 220 255 
2.724491 -0.9753276 0.4465942 0.8951874 -0.3165126 0.3137802 221 221 221 255 
2.619064 -0.8928869 0.179781 0.9990325 -0.005312436 0.0436542 216 216 216 255 
2.58144 -0.9632757 0.1184063 0.998665 -0.024174 0.04565096 215 215 215 255 
2.584084 -1.034565 -0.002363205 0.9986185 -0.01853575 0.04916519 215 215 215 255 
2.700169 -0.9015199 -0.499321 0.6899521 -0.713048 0.1246099 230 230 230 255 
2.225636 -0.9354335 -1.03203 0.9518495 -0.3038934 0.04037651 234 234 234 255 
2.807114 -1.037127 -1.716209 0.6615144 -0.195351 0.7240412 236 236 236 255 
2.949318 -1.033138 -1.791117 0.7284181 -0.004094383 0.6851206 236 236 236 255 
3.070515 -1.031361 -1.867517 0.6654136 -0.03811705 0.745501 237 237 237 255 
3.170033 -0.9981917 -4.433826 0.9796176 -0.1538891 -0.129102 149 149 149 255 
1.474617 -1.119198 -8.229412 0.9955764 -0.02914126 -0.0893251 106 106 106 255 
1.623955 -1.142653 -8.353495 0.9363314 -0.3052924 0.1734318 102 102 102 255 
1.685513 -1.106277 -8.484552 0.8976871 0.4110013 0.1588552 94 94 94 255 
1.173161 -1.048331 -9.418573 0.7824478 -0.5488421 0.2941895 56 56 56 255 
1.301353 -1.102677 -9.879923 0.7609783 -0.5704212 0.3090803 0 0 0 255 
1.604919 -1.087094 -9.886801 0.4880207 -0.7093516 0.5085832 0 0 0 255 
0.4318542 -0.9590274 9.559968 0.9713297 -0.1205431 -0.2049114 0 0 0 255 
0.456646 -1.028152 9.67697 0.9721355 -0.037885 -0.2313363 0 0 0 255 
0.4266014 -1.035482 9.435232 0.9732591 -0.08980498 -0.2114255 0 0 0 255 
0.3719673 -0.965537 9.308821 0.8741807 0.2142559 0.4357771 3 3 3 255 
0.3825874 -0.9644853 9.301917 0.9346041 0.1380368 0.3278126 6 6 6 255 
0.4223747 -0.9629055 9.185186 0.9908506 0.04852641 0.125932 104 104 104 255 
0.4448738 -1.024057 9.063173 0.9719301 0.09005323 0.2173544 131 131 131 255 
0.5509834 -1.054376 6.502426 0.9505149 -0.2024587 -0.2356514 127 127 127 255 
0.5125504 -1.004681 6.318339 0.9690685 -0.2466753 0.007577419 130 130 130 255 
0.5175362 -1.026229 5.98031 0.9894292 -0.1381169 0.04419029 130 130 130 255 
0.5359306 -1.029812 5.838549 0.9985431 -0.02277674 0.04891413 125 125 125 255 
0.5364723 -1.081796 5.697525 0.9986035 -0.009617038 0.05194113 121 121 121 255 
0.5458183 -1.079152 5.607264 0.9978805 0.03901571 0.05208123 90 90 90 255 
0.5480995 -1.001164 5.485155 0.9951764 -0.002718429 0.09805956 2 2 2 255 
0.5573196 -1.067018 5.358913 0.9973973 0.01919062 0.06950098 2 2 2 255 
0.5543785 -1.065351 5.105139 0.9963726 0.08443254 -0.01056507 0 0 0 255 
0.5204735 -1.069484 4.87052 0.9966273 -0.05292117 0.0627149 0 0 0 255 
1.682117 -1.058612 2.930626 0.01045096 0.01422777 0.9998443 45 45 45 255 
1.728725 -1.130846 2.721663 0.3590736 -0.804131 0.4737502 56 56 56 255 
1.937477 -1.053047 2.673084 0.3774084 -0.7898654 0.4833989 42 42 42 255 
2.05286 -1.048863 2.320322 0.4653831 -0.576439 0.6716676 46 46 46 255 
2.063004 -1.061007 2.487108 0.6761444 -0.6783541 0.287515 47 47 47 255 
2.059456 -1.14899 2.215738 0.4280925 -0.5700617 0.7012599 119 119 119 255 
2.203629 -1.0284 2.184015 0.8179618 -0.5162842 0.2537485 131 131 131 255 
2.252319 -1.036778 2.027288 0.8494045 -0.4763121 0.2272416 122 122 122 255 
2.264153 -1.068844 1.868147 0.8416483 -0.5051808 0.19084 90 90 90 255 
2.298065 -1.065074 1.707441 0.8501942 -0.4828636 0.2097893 125 125 125 255 
2.40546 -1.056726 1.290194 0.8689246 -0.4645418 0.1707928 0 0 0 255 
2.443836 -1.050089 1.09458 0.8318831 -0.347336 0.4328136 91 91 91 255 
2.444267 -1.04955 1.122808 0.8416443 -0.3646215 0.3983532 54 54 54 255 
2.424557 -1.050833 1.088421 0.7831079 -0.2669038 0.5616972 86 86 86 255 
2.448498 -1.048923 1.10965 0.8408643 -0.357565 0.4063171 73 73 73 255 
2.51223 -1.048124 0.9728146 0.7273697 -0.2138197 0.6520849 210 210 210 255 
2.527 -1.047244 0.9878082 0.7765034 -0.2458677 0.5801637 209 209 209 255 
2.517239 -1.046336 0.9820271 0.7933452 -0.2669769 0.547107 209 209 209 255 
2.75108 -1.039797 0.7789536 0.7717507 -0.1922508 0.6061676 217 217 217 255 
2.119755 -1.169732 -0.7209225 0.9353507 -0.3519367 0.03548321 226 226 226 255 
2.191219 -1.077018 -0.9990902 0.9360974 -0.3482179 0.04965889 230 230 230 255 
2.820396 -1.163522 -1.628849 0.5653336 -0.4405688 0.6973503 234 234 234 255 
2.700832 -1.167277 -1.707956 0.2308937 -0.3217656 0.9182343 231 231 231 255 
2.877296 -1.16082 -1.757318 0.6868572 -0.002202086 0.7267882 235 235 235 255 
3.038692 -1.171265 -1.769838 0.8506637 -0.2859939 0.4411106 235 235 235 255 
3.227215 -1.154218 -2.020853 0.5345409 0.09317601 0.8399898 149 149 149 255 
3.014408 -1.209192 -5.870872 0.9687279 -0.2267797 -0.1006862 138 138 138 255 
1.767044 -1.316615 -7.549088 0.9741868 0.1019027 0.2014339 131 131 131 255 
1.757046 -1.234093 -7.701067 0.9529456 -0.2423 0.1821657 119 119 119 255 
1.715397 -1.322498 -7.98419 0.9773659 0.01539402 0.2109955 122 122 122 255 
1.27639 -1.24885 -9.941103 0.8013532 -0.5084969 0.3150622 0 0 0 255 
0.4402122 -1.106471 9.564707 0.9714278 -0.1205997 -0.2044099 0 0 0 255 
0.4067421 -1.112257 9.311824 0.9234878 0.1602872 0.3485368 46 46 46 255 
0.4559288 -1.147162 9.192594 0.9433335 0.1386337 0.3015 130 130 130 255 
0.4462395 -1.166834 9.152293 0.9513991 0.1109452 0.2872798 131 131 131 255 
0.4922676 -1.076933 8.946024 0.8603295 -0.2615367 0.4375275 131 131 131 255 
0.3725853 -1.152449 6.256523 0.8960782 -0.3774352 -0.2336369 130 130 130 255 
0.5246696 -1.187691 6.052064 0.97335 -0.1312848 0.1880288 130 130 130 255 
0.5225182 -1.126051 5.907143 0.9913678 -0.1234626 0.04412004 130 130 130 255 
0.6280785 -1.174353 5.827498 0.9134832 0.3535072 -0.2014474 125 125 125 255 
0.682991 -1.174384 5.749247 0.8930971 0.419947 -0.1613136 125 125 125 255 
0.5641365 -1.145134 5.483181 0.9975893 0.04396772 0.05368629 94 94 94 255 
0.5638771 -1.211205 5.350294 0.9966367 0.05188794 0.06341377 96 96 96 255 
0.5565453 -1.147203 5.224874 0.9961622 -0.06589217 0.05760306 5 5 5 255 
0.5617867 -1.145379 5.053885 0.9997033 0.02395822 0.004211128 0 0 0 255 
0.5494728 -1.214058 4.868813 0.999896 0.01343112 0.005230784 0 0 0 255 
0.568512 -1.210682 4.661425 0.9963708 -0.05723323 0.063007 0 0 0 255 
0.5737762 -1.163643 4.771006 0.6755179 0.4172783 0.6079097 0 0 0 255 
0.4977989 -1.251503 4.46501 0.7078124 0.6186647 0.3409611 0 0 0 255 
0.3745155 -1.207206 2.210459 0.3130173 -0.7834123 0.5369218 74 74 74 255 
0.8972816 -1.195152 2.369785 0.02575818 -0.4632205 0.8858685 81 81 81 255 
0.9696999 -1.193164 2.382616 0.1661873 -0.5599367 0.8116974 80 80 80 255 
1.695587 -1.174469 2.791513 -0.01339599 -0.3152547 0.9489127 82 82 82 255 
1.810612 -1.19855 2.508375 0.3577644 -0.8027276 0.4771093 83 83 83 255 
1.984016 -1.216378 2.302832 0.6399046 -0.6096887 0.4677618 88 88 88 255 
2.162952 -1.155357 2.097792 0.7937815 -0.5176919 0.3192262 135 135 135 255 
2.180355 -1.194168 1.92745 0.7943543 -0.5317533 0.2936649 82 82 82 255 
2.213223 -1.192421 1.765514 0.8518687 -0.4688119 0.2335266 121 121 121 255 
2.259598 -1.186398 1.610226 0.8566753 -0.4744874 0.2024086 111 111 111 255 
2.261803 -1.29997 1.336739 0.8686534 -0.452284 0.2021879 3 3 3 255 
2.260723 -1.30067 1.337933 0.865271 -0.4593061 0.200854 3 3 3 255 
2.30328 -1.178735 1.453642 0.8552948 -0.4864815 0.1783411 10 10 10 255 
2.311008 -1.297408 1.190184 0.8335176 -0.3726525 0.4078955 123 123 123 255 
2.309586 -1.297947 1.18968 0.8390248 -0.3891611 0.3802524 123 123 123 255 
2.335728 -1.175589 1.291161 0.857753 -0.4556352 0.2380243 1 1 1 255 
2.381584 -1.173428 1.143526 0.8316411 -0.3700085 0.4140851 108 108 108 255 
2.399975 -1.294558 1.056368 0.7972424 -0.2681588 0.5408276 206 206 206 255 
2.374393 -1.173917 1.136757 0.8396089 -0.3914155 0.3766307 112 112 112 255 
2.389294 -1.294816 1.05987 0.8089033 -0.1954198 0.5545136 206 206 206 255 
2.389675 -1.293477 1.059837 0.7932305 -0.275863 0.5428483 206 206 206 255 
2.461033 -1.171113 1.01454 0.7887452 -0.2658662 0.5542523 209 209 209 255 
2.456257 -1.171125 1.021185 0.7872997 -0.2692038 0.5546968 208 208 208 255 
2.49229 -1.291101 0.9409237 0.7849816 -0.2850349 0.5500533 208 208 208 255 
2.485676 -1.291276 0.9465008 0.8056362 -0.2859103 0.5188498 208 208 208 255 
2.566452 -1.167233 0.9202366 0.8303639 -0.0336427 0.5562055 212 212 212 255 
2.498997 -1.290903 0.9445744 0.793271 -0.2564754 0.5522141 208 208 208 255 
2.525215 -1.28977 0.8012028 0.9822042 -0.1221319 0.14268 210 210 210 255 
2.645317 -1.164412 0.7977276 0.8156095 -0.2817484 0.5053701 213 213 213 255 
2.661617 -1.26681 0.5407333 0.9279174 -0.3723979 0.01700372 214 214 214 255 
2.381916 -1.24949 -0.0288868 0.9921551 -0.09672071 0.079202 211 211 211 255 
2.109966 -1.322064 -0.7011566 0.9637654 0.05322429 0.2613868 223 223 223 255 
2.063206 -1.261665 -0.5789471 0.8816056 -0.4249444 0.2054094 224 224 224 255 
2.112358 -1.264393 -0.8333874 0.9412773 -0.2866414 0.1784196 225 225 225 255 
2.129391 -1.284181 -1.27442 0.836709 -0.5226381 0.163605 228 228 228 255 
2.133205 -1.283218 -1.270855 0.8351028 -0.5245718 0.1656102 228 228 228 255 
2.474766 -1.343948 -1.380335 0.7034875 -0.6534245 0.2795363 229 229 229 255 
2.978458 -1.192289 -1.22753 0.9104569 -0.3911175 0.1345157 231 231 231 255 
2.827835 -1.291351 -1.543394 0.8040458 -0.5194502 0.2892772 232 232 232 255 
2.831997 -1.29073 -1.541807 0.779897 -0.5522894 0.2945114 232 232 232 255 
2.818195 -1.289587 -1.551622 0.8051025 -0.502313 0.3154217 232 232 232 255 
2.826054 -1.289632 -1.546637 0.7959217 -0.5246931 0.3020007 232 232 232 255 
2.810207 -1.290517 -1.721882 0.6616309 0.02986607 0.7492345 233 233 233 255 
2.81089 -1.290091 -1.720846 0.6664299 0.03285377 0.7448435 233 233 233 255 
2.917187 -1.287904 -1.820557 0.5517635 0.1061079 0.8272225 231 231 231 255 
3.044025 -1.285616 -1.897512 0.5361973 0.09846679 0.8383296 176 176 176 255 
3.172001 -1.282927 -1.973539 0.5311548 0.1008408 0.8412524 147 147 147 255 
3.330196 -1.280007 -2.232342 0.9908527 0.1000716 0.09053195 148 148 148 255 
2.060715 -1.426118 -7.848673 0.9784882 0.04057502 0.2022742 116 116 116 255 
1.555851 -1.500341 -8.657139 0.9742493 -0.0356848 0.2226318 110 110 110 255 
1.102333 -1.444426 -9.938732 0.8661102 -0.4529309 0.2114372 70 70 70 255 
1.394257 -1.431808 -10.25443 0.4832076 -0.7471086 0.4564413 0 0 0 255 
1.346893 -1.413276 -10.35806 0.6219295 -0.6342548 0.459264 0 0 0 255 
1.370178 -1.46502 -10.58554 0.8282273 -0.2325452 0.509864 0 0 0 255 
0.4930763 -1.284083 9.665871 0.9114351 -0.1705239 -0.3744423 0 0 0 255 
0.403347 -1.240888 9.265146 0.996695 -0.02508741 -0.07726124 118 118 118 255 
0.4612656 -1.310499 9.157094 0.9518653 0.1185841 0.2826478 131 131 131 255 
0.5014839 -1.213693 9.036339 0.9836443 0.04038564 0.175534 131 131 131 255 
0.6176109 -1.276474 5.800536 0.9940385 0.1087684 -0.007582754 130 130 130 255 
0.6157494 -1.270731 5.896402 0.9961233 0.07407766 0.04743686 130 130 130 255 
0.6540642 -1.325066 5.588366 0.951727 0.2647004 -0.1553994 125 125 125 255 
0.4704552 -1.356307 5.352392 0.6695558 -0.6245309 0.4020649 129 129 129 255 
0.6663857 -1.385575 5.290981 0.9531307 0.2849219 -0.1017928 127 127 127 255 
0.6287155 -1.292597 5.174231 0.955146 0.2837356 -0.08480075 86 86 86 255 
0.5524635 -1.290063 5.032368 0.9948769 0.08321038 0.05740333 30 30 30 255 
0.5549202 -1.357365 4.903572 0.9992908 0.03761 0.001772851 36 36 36 255 
