ply
format ascii 1.0
comment VCGLIB generated
element vertex 632
property float x
property float y
property float z
property float nx
property float ny
property float nz
property uchar red
property uchar green
property uchar blue
property uchar alpha
element face 0
property list uchar int vertex_indices
end_header
-1.070309 2.549198 4.070524 -0.2977484 0.1883471 -0.9358799 0 0 241 255 
-1.209499 2.55177 4.397724 -0.9557741 0.2049242 -0.2109531 0 0 131 255 
-1.200333 2.639966 4.447667 -0.990255 0.1222537 -0.06670634 0 0 138 255 
-1.240692 2.566218 4.586308 -0.9636363 0.177963 -0.199332 0 0 130 255 
-1.221462 2.644573 4.725989 -0.9714655 0.1093567 -0.2104649 0 0 137 255 
-1.232162 2.643877 4.724472 -0.9580193 0.1313296 -0.2548546 0 0 133 255 
-1.273197 2.566098 4.84749 -0.9768624 0.2025135 0.0687649 0 0 134 255 
-1.272343 2.567217 4.851027 -0.9754183 0.2137555 0.05355471 0 0 133 255 
-1.112869 2.72354 5.910299 -0.902428 -0.4268895 -0.05821322 0 0 194 255 
-1.158054 2.738475 5.876566 -0.9110313 -0.411022 -0.03291751 0 0 155 255 
-1.20607 2.731552 6.146318 -0.9037424 -0.3495623 -0.2470935 0 0 134 255 
-1.286949 2.654017 6.232761 -0.8333708 0.4968374 -0.2421672 0 0 133 255 
-1.315536 2.699879 7.253874 -0.9851807 -0.06518793 -0.1586495 0 0 142 255 
-1.334297 2.710618 7.545377 -0.9983807 -0.02693007 -0.05009824 0 0 148 255 
-1.400185 2.775377 7.368075 -0.9152635 -0.3408685 -0.2147135 0 0 179 255 
-1.44944 2.782225 7.644427 -0.845112 -0.4565437 -0.2781252 0 0 226 255 
-1.417572 2.70814 7.794381 -0.9056507 -0.3528819 -0.2350979 0 0 196 255 
-1.554482 2.696192 8.011137 -0.881717 -0.4293047 -0.1956308 0 158 255 255 
-1.574169 2.697926 7.957082 -0.7890217 -0.5917198 -0.165261 0 215 255 255 
-1.143974 2.759 8.688181 -0.926484 0.3744814 -0.03729531 0 0 163 255 
-1.221581 2.76272 9.224936 -0.96259 0.1253605 -0.2402205 0 0 129 255 
-1.288544 2.84367 9.349781 -0.9208589 0.1508975 -0.3595113 0 0 132 255 
-1.081219 2.385515 -0.2701588 -0.9277986 -0.3523241 -0.122709 127 0 0 255 
-1.135963 2.307793 -0.1461439 -0.9994141 0.002757668 -0.03410068 127 0 0 255 
-1.115471 2.311496 -0.1498175 -0.988559 -0.1111857 -0.1019288 127 0 0 255 
-1.143368 2.389789 -0.02690125 -0.9735899 -0.2106665 -0.08798884 255 42 0 255 
-1.12825 2.325135 0.11549 -0.9235629 -0.348537 -0.1598548 170 0 0 255 
-1.299862 2.390086 0.1807213 -0.9916924 -0.09556936 -0.08610429 207 255 47 255 
-1.296486 2.380319 0.3753443 -0.991569 -0.1166448 -0.05643971 0 183 255 255 
-1.210953 2.317085 0.5382833 -0.990037 -0.09920692 -0.09992521 0 162 255 255 
-1.190521 2.371858 0.7087622 -0.9953505 -0.07032829 -0.065817 0 12 255 255 
-1.224369 2.398687 0.9179897 -0.993252 -0.1014042 -0.05627607 0 0 150 255 
-1.198956 2.300249 0.8367052 -0.9950849 -0.08446755 -0.05169226 0 15 255 255 
-1.291924 2.414468 1.409218 -0.2220051 0.3382174 -0.9145067 0 0 140 255 
-1.156979 2.382601 4.035951 -0.7436894 -0.6212088 -0.2470324 0 0 162 255 
-1.19862 2.450889 4.270918 -0.9135895 0.3255089 -0.2437165 0 0 138 255 
-1.305096 2.497005 4.699439 -0.7776681 0.2626736 -0.5711701 0 0 132 255 
-0.8802605 2.48282 5.79001 -0.8700409 -0.2882795 -0.3999034 118 255 136 255 
-1.15773 2.575034 6.592362 -0.8996625 0.3577921 -0.2501822 0 0 161 255 
-1.280888 2.597356 6.855337 -0.8641154 0.4227945 -0.2730391 0 0 136 255 
-1.323185 2.553411 7.549595 -0.997366 -0.04805978 -0.05432671 0 0 146 255 
-1.335171 2.62995 7.406113 -0.996777 -0.03355055 -0.07287554 0 0 141 255 
-1.33556 2.556744 7.823128 -0.9983359 -0.01606798 -0.05537404 0 0 141 255 
-1.339577 2.633504 7.682395 -0.9972138 -0.05661709 -0.04856145 0 0 158 255 
-1.390965 2.632477 7.943084 -0.9551244 -0.1440021 -0.2588451 0 0 176 255 
-1.467831 2.549981 8.048586 -0.8619127 -0.4530446 -0.2277202 0 0 251 255 
-1.19706 2.608548 8.589466 -0.9353933 0.3485032 -0.05987318 0 0 171 255 
-1.227592 2.605176 9.224674 -0.9695774 0.1264646 -0.2095853 0 0 131 255 
-1.256489 2.682964 9.359864 -0.9534653 0.1846615 -0.2383367 0 0 135 255 
-1.315239 2.685232 9.341095 -0.9143566 0.07311966 -0.3982534 0 0 142 255 
-1.07114 2.24829 -0.003792763 -0.9426553 -0.3189844 -0.09823346 127 0 0 255 
-1.184841 2.241027 0.4178295 -0.9736651 -0.1783792 -0.1419793 227 255 27 255 
-1.184322 2.172409 0.5496464 -0.9865634 -0.1462239 -0.07288046 253 255 0 255 
-1.2132 2.246856 0.6674595 -0.9903758 -0.1087011 -0.08567448 0 241 255 255 
-1.210629 2.177294 0.7977314 -0.9956551 -0.06985248 -0.06157544 0 223 255 255 
-1.223103 2.252894 0.9234152 -0.9955075 -0.07018278 -0.06356135 0 0 235 255 
-1.229073 2.182536 1.051592 -0.9924437 -0.09506623 -0.07757424 0 18 255 255 
-1.246231 2.258544 1.176414 -0.9905082 -0.1177986 -0.07082379 0 0 142 255 
-1.253071 2.25752 1.177237 -0.998861 -0.01786132 -0.04423828 0 0 142 255 
-1.249668 2.184884 1.306705 -0.9991822 -0.03981577 -0.007039994 0 0 165 255 
-1.255989 2.188347 1.304734 -0.99993 -0.008374828 0.008324891 0 0 160 255 
-1.245304 2.263687 1.435036 -0.5681558 0.4200546 -0.7076383 0 0 128 255 
-1.300388 2.229968 1.546039 -0.6629412 0.2254336 -0.7139248 0 0 133 255 
-1.325371 2.17547 1.676374 -0.6602299 0.2367617 -0.7127699 0 0 141 255 
-1.4972 2.270461 1.732347 -0.9326236 -0.03992819 0.3586349 0 42 255 255 
-1.181107 2.281987 4.2981 -0.8940924 -0.3331786 0.299318 0 0 157 255 
-1.199539 2.279888 4.267488 -0.9060776 -0.2889161 0.3091111 0 0 144 255 
-1.373108 2.337518 4.677547 -0.6530631 0.1530243 -0.7416821 0 0 159 255 
-0.9442291 2.315595 5.751509 -0.5571673 -0.8282096 -0.06027693 0 210 255 255 
-0.9556923 2.452905 5.8314 -0.4884194 -0.6815845 -0.5448761 0 187 255 255 
-1.089336 2.36007 5.920561 -0.3124039 -0.8108785 -0.4948527 0 0 212 255 
-1.225941 2.428567 6.110435 -0.5706041 -0.7862093 -0.2372447 0 0 136 255 
-1.280209 2.364145 6.999393 -0.9432473 0.0722824 -0.3241283 0 0 136 255 
-1.190487 2.443656 6.890907 -0.7489436 0.07597855 -0.658263 0 0 136 255 
-1.308422 2.392777 7.277868 -0.9996886 -0.006334516 -0.0241425 0 0 142 255 
-1.317123 2.395678 7.551435 -0.998056 -0.04226498 -0.04579863 0 0 134 255 
-1.314079 2.47302 7.413869 -0.9977465 -0.05403192 -0.03978491 0 0 138 255 
-1.32505 2.476162 7.687677 -0.9977835 -0.04637111 -0.04773116 0 0 132 255 
-1.324451 2.476657 7.687798 -0.9977438 -0.04508362 -0.0497383 0 0 132 255 
-1.352543 2.477248 7.956681 -0.9985293 -0.03644981 -0.04014105 0 0 142 255 
-1.292324 2.422814 8.229085 -0.9621881 0.2601125 -0.08084355 0 0 130 255 
-1.346996 2.399693 8.098608 -0.9943875 -0.06303854 -0.08496572 0 0 140 255 
-1.122238 2.439827 8.718651 -0.9027913 0.4104903 -0.1283154 0 0 206 255 
-1.25058 2.530624 9.144552 -0.9961292 -0.07423195 0.04708111 0 0 136 255 
-1.571129 2.511658 9.276805 -0.6621742 0.204186 -0.7209942 0 177 255 255 
-1.156647 2.027014 0.5577192 -0.9692337 -0.2029595 -0.1392624 127 0 0 255 
-1.18483 2.103821 0.680007 -0.9837402 -0.1548684 -0.09094758 255 184 0 255 
-1.210735 2.106304 0.9270878 -0.9914876 -0.1053781 -0.07647231 0 237 255 255 
-1.212017 2.036316 1.056803 -0.990554 -0.1118991 -0.07925093 0 248 255 255 
-1.236809 2.111754 1.180459 -0.9918758 -0.09928837 -0.07952298 0 10 255 255 
-1.229725 2.112793 1.181551 -0.9909727 -0.1097107 -0.07704329 0 9 255 255 
-1.254498 2.036209 1.306623 -0.9134973 -0.4010007 -0.06871037 0 32 255 255 
-1.260292 2.111566 1.433552 -0.9908502 -0.1258384 -0.04879007 0 0 154 255 
-1.07909 2.199815 3.680067 -0.9197522 0.2710618 0.2838692 0 0 235 255 
-1.132236 2.110402 3.759627 -0.9512421 0.2056483 -0.229887 0 0 174 255 
-1.174168 2.097615 4.017459 -0.9968597 0.07302174 -0.03064719 0 0 149 255 
-1.235138 2.090085 4.266501 -0.9500229 -0.1368403 -0.2805892 0 0 150 255 
-1.432095 2.175645 4.658475 -0.3843692 -0.1393774 -0.9125977 0 0 215 255 
-1.29784 2.283453 6.850263 -0.8426446 0.08960723 -0.5309611 0 0 140 255 
-1.276344 2.294988 7.14029 -0.9690818 -0.2394668 -0.05946438 0 0 129 255 
-1.311863 2.209302 6.98779 -0.8948861 0.05370364 -0.4430518 0 0 140 255 
-1.308033 2.314983 7.416207 -0.9991245 -0.03769425 -0.01816168 0 0 153 255 
-1.280617 2.224214 7.278502 -0.9684955 -0.2252967 -0.1061063 0 0 135 255 
-1.316856 2.235984 7.55104 -0.9994045 -0.03317551 -0.009487838 0 0 134 255 
-1.306255 2.179633 7.732656 -0.9962626 -0.0689564 -0.05201519 0 0 128 255 
-1.339794 2.335408 7.721317 -0.9991307 -0.0118944 -0.03996095 0 0 140 255 
-1.317608 2.318515 7.69007 -0.9983699 -0.03839968 -0.04223281 0 0 144 255 
-1.31842 2.183993 8.007315 -0.9855088 -0.1373704 -0.09950505 0 0 140 255 
-1.314651 2.26129 7.869483 -0.9915681 -0.1054883 -0.07526492 0 0 139 255 
-1.355312 2.259751 8.20814 -0.996508 0.03021823 -0.07784161 0 0 146 255 
-1.374691 2.330111 8.349331 -0.9543006 -0.2969533 0.03360444 0 0 159 255 
-1.14296 1.959582 0.693531 -0.9628246 -0.2520998 -0.09703165 127 0 0 255 
-1.155762 1.969739 0.9500618 -0.9121946 -0.3635816 -0.1889679 255 153 0 255 
-1.194336 1.890084 1.062247 -0.9863207 -0.1431338 -0.08175701 255 139 0 255 
-1.217449 1.966237 1.185756 -0.9994211 0.007842788 -0.03311387 42 255 212 255 
-1.174931 1.943676 3.738823 -0.9867001 0.09022991 -0.1352088 0 0 147 255 
-1.184223 1.956786 3.748706 -0.9955484 0.04273625 -0.08400424 0 0 141 255 
-1.14661 2.033719 3.888749 -0.9614696 0.2366237 0.1399445 0 0 165 255 
-1.159172 1.948469 4.027822 -0.9410888 0.2324054 -0.2456411 0 0 168 255 
-1.190147 2.019762 4.150705 -0.9831624 0.1267048 -0.1316739 0 0 141 255 
-1.216492 2.019172 4.411234 -0.6372893 -0.7151864 -0.2870024 0 0 140 255 
-1.285801 2.138769 7.157718 -0.9368541 -0.1456474 -0.3179501 0 0 128 255 
-1.276321 2.153757 7.420482 -0.9677074 -0.224645 -0.1143546 0 0 129 255 
-1.148071 2.073382 7.383586 -0.7272878 -0.6278036 -0.2773371 0 0 163 255 
-1.257668 2.085285 7.570951 -0.9423825 -0.3010283 -0.1459332 0 0 130 255 
-1.317455 2.024727 8.006937 -0.9980074 -0.04763295 -0.04138976 0 0 132 255 
-1.307686 2.102892 7.871372 -0.9968601 -0.06493717 -0.04531781 0 0 136 255 
-1.316795 2.116609 8.179221 -0.9747971 -0.1976346 -0.1034935 0 0 139 255 
-1.296608 2.049386 8.339547 -0.9162576 -0.3210325 0.2396037 0 0 133 255 
-1.258671 2.186823 8.433297 -0.9438268 0.2383986 0.2288176 0 0 137 255 
-1.240265 2.143917 8.833151 -0.9522746 0.2929271 -0.08583361 0 0 146 255 
-1.255669 1.739651 1.050194 -0.8684267 0.4558084 -0.1951257 255 248 0 255 
-1.283405 1.808618 1.193208 -0.9149934 0.3892635 -0.1061145 12 255 242 255 
-1.292736 1.725994 1.335225 -0.5197521 0.535289 -0.665826 0 115 255 255 
-1.174709 1.864144 3.873045 -0.9921082 0.1187812 -0.04015276 0 0 144 255 
-1.145664 1.809948 4.026042 -0.7498147 0.3473587 -0.563134 0 0 178 255 
-1.19717 1.869251 4.150419 -0.9901277 0.1030941 -0.09497152 0 0 173 255 
-1.383343 1.814171 4.230641 -0.5285733 0.2366294 -0.81524 0 0 239 255 
-1.297939 1.891737 4.391582 -0.5374593 -0.1282353 -0.8334826 0 0 133 255 
-1.567307 1.9042 6.920177 -0.9923596 0.007750343 -0.123131 0 187 255 255 
-1.225365 1.945139 7.889665 -0.8596764 -0.4595303 -0.223131 0 0 129 255 
-1.22422 2.016537 7.737473 -0.8548057 -0.4709887 -0.2178935 0 0 135 255 
-1.222679 1.875757 8.04003 -0.895961 -0.4071225 -0.1774974 0 0 131 255 
-1.264183 1.962928 8.196486 -0.9395397 -0.3266978 -0.1026372 0 0 130 255 
-1.259483 1.884719 8.611366 -0.9845585 -0.1196327 -0.1278025 0 0 132 255 
-1.244408 1.551047 0.8650112 -0.9458272 0.2926909 -0.1405116 255 0 0 255 
-1.261982 1.61903 1.019706 -0.8303986 0.5280405 -0.1777947 218 255 36 255 
-1.403481 1.562255 1.138894 -0.9011599 0.3847944 -0.1996116 0 42 255 255 
-1.389275 1.633543 1.289328 -0.7922627 0.5046633 -0.3429794 0 0 219 255 
-1.276039 1.709252 2.378111 -0.9953653 -0.03172538 -0.09078018 0 0 135 255 
-1.227459 1.590132 2.670114 -0.99249 -0.1070186 -0.05925907 0 0 162 255 
-1.232502 1.66299 2.539106 -0.9786559 -0.1115552 -0.1725937 0 0 133 255 
-1.186611 1.729165 3.879659 -0.9970144 0.03129115 -0.07058929 0 0 139 255 
-1.18837 1.65532 3.746841 -0.9962797 0.04372513 -0.074264 0 0 156 255 
-1.196579 1.65383 3.743953 -0.9960679 -0.05600864 -0.06864254 0 0 151 255 
-1.198936 1.652996 4.008976 -0.9967937 0.0258252 -0.07572483 0 0 134 255 
-1.240479 1.671225 4.275431 -0.9825604 0.0955788 -0.1594967 0 0 132 255 
-2.061848 1.680941 5.945703 -0.9760484 -0.04175088 0.2135092 127 0 0 255 
-1.691765 1.712671 7.057362 -0.963886 0.08649505 -0.2518767 251 255 0 255 
-1.092186 1.798066 7.93845 -0.8176512 -0.5734543 0.05096529 0 0 212 255 
-1.179192 1.812417 8.221651 -0.8186609 -0.5561472 -0.1431611 0 0 141 255 
-1.289635 1.860952 8.342915 -0.7608692 -0.6048937 -0.234907 0 0 137 255 
-1.217239 1.79272 8.485802 -0.8977831 -0.4311194 -0.09011422 0 0 135 255 
-1.250771 1.813552 8.755293 -0.9461575 -0.3045664 -0.1096544 0 0 129 255 
-1.405464 1.489093 1.008557 -0.9686455 0.1571134 -0.1924584 0 129 255 255 
-1.489059 1.406387 1.447525 -0.9989664 -0.02719559 -0.03642073 0 0 252 255 
-1.475197 1.480845 1.581234 -0.9914634 0.1276326 -0.0266476 0 10 255 255 
-1.503819 1.447169 1.974349 -0.9893862 -0.1389556 -0.04250583 0 0 241 255 
-1.241371 1.440228 2.667871 -0.9955209 -0.07843858 -0.05278522 0 14 255 255 
-1.254791 1.516925 2.794497 -0.9735289 -0.2062216 -0.09855998 0 0 144 255 
-1.397694 1.519269 3.023896 -0.6211555 -0.7836854 -0.001752198 0 0 176 255 
-1.154453 1.505464 3.490439 -0.9853222 0.07375498 -0.1539514 0 0 174 255 
-1.189529 1.503751 3.746164 -0.9934486 0.009097532 -0.1139169 0 0 142 255 
-1.195724 1.503598 3.744512 -0.9973528 0.005904357 -0.07247816 0 0 140 255 
-1.20636 1.502218 4.006611 -0.9924435 0.02204337 -0.1207093 0 0 236 255 
-1.307922 1.496616 4.240368 -0.9188452 0.1461988 -0.3665376 0 0 131 255 
-2.035431 1.60025 5.863929 -0.9939985 -0.05475291 0.0947018 127 0 0 255 
-2.058735 1.515167 5.946905 -0.9769581 -0.0149552 0.2129087 127 0 0 255 
-1.96167 1.504432 6.225344 -0.9677058 0.08993773 0.2354924 127 0 0 255 
-1.735168 1.559205 6.974075 -0.9282054 0.03294991 -0.3706049 255 110 0 255 
-1.631447 1.640344 7.022254 -0.9618012 0.04545836 -0.2699472 84 255 170 255 
-1.145992 1.630489 8.514235 -0.9195906 0.01390415 -0.3926325 0 0 161 255 
-1.48201 1.33883 1.25384 -0.9912729 0.03465409 -0.1271899 0 0 170 255 
-1.49453 1.259227 1.44634 -0.9997607 0.01968103 -0.009500265 0 0 151 255 
-1.4958 1.332464 1.575758 -0.9992099 0.03876456 0.00880751 0 0 194 255 
-1.489227 1.328491 2.022768 -0.9528308 0.204362 0.2243843 0 121 255 255 
-1.234123 1.414394 2.39205 -0.9856355 -0.1621689 -0.04716016 0 237 255 255 
-1.237133 1.364695 2.539164 -0.9981383 -0.03286004 -0.05137558 0 222 255 255 
-1.229172 1.292065 2.671673 -0.9941104 -0.07979167 -0.07332732 8 255 246 255 
-1.237495 1.368938 2.799626 -0.9959878 -0.06687254 -0.05947247 0 32 255 255 
-1.244858 1.296727 2.928449 -0.995847 -0.06904241 -0.05933699 0 30 255 255 
-1.268955 1.377325 3.055644 -0.9899783 -0.1294949 -0.05633397 0 0 143 255 
-1.273586 1.29024 3.160721 -0.9923802 -0.1011578 -0.07034419 0 0 160 255 
-1.157097 1.37143 3.366292 -0.9261211 0.2526307 -0.2801391 0 0 161 255 
-1.202835 1.291293 3.482304 -0.9977348 0.02730848 -0.06147359 0 0 132 255 
-1.20665 1.371141 3.354266 -0.9981182 0.008128144 -0.06077021 0 0 142 255 
-1.169785 1.429667 3.618769 -0.9943982 0.03277572 -0.1004876 0 0 149 255 
-1.197868 1.353428 3.743098 -0.9967036 0.01469567 -0.0797922 0 0 136 255 
-1.195915 1.351709 3.743882 -0.997167 0.01371288 -0.0739646 0 0 137 255 
-1.217339 1.352114 4.003163 -0.986348 0.03254848 -0.1614285 0 0 212 255 
-1.246899 1.423669 4.127187 -0.9682395 0.1469942 -0.2022493 0 0 144 255 
-1.230289 1.426455 4.132806 -0.9904472 0.06246931 -0.1229319 0 0 140 255 
-1.33881 1.344476 4.230536 -0.8993371 0.1990505 -0.389323 0 0 169 255 
-2.016407 1.392678 6.078847 -0.9774666 -0.02716273 0.2093346 127 0 0 255 
-2.172981 1.426759 5.770868 -0.6546862 -0.7407758 -0.1504566 127 0 0 255 
-1.516026 1.410437 6.888056 -0.9134548 -0.007328326 -0.4068729 0 77 255 255 
-1.902893 1.393813 6.436243 -0.5449572 -0.8319502 -0.1043075 127 0 0 255 
-1.691879 1.407668 7.006371 -0.9415677 -0.2465676 -0.2294653 248 255 6 255 
-1.644619 1.484486 6.975937 -0.969049 -0.1043006 -0.2237507 111 255 143 255 
-1.255203 1.427205 8.539382 -0.6627806 0.3211359 -0.676456 0 0 133 255 
-1.255421 1.427299 8.539171 -0.6610954 0.3233317 -0.6770597 0 0 133 255 
-1.25647 1.427951 8.54068 -0.6568912 0.3258907 -0.6799185 0 0 133 255 
-1.487747 1.19254 1.253457 -0.9973451 -0.011928 -0.0718399 0 0 140 255 
-1.493519 1.114858 1.37668 -0.9961723 0.055566 0.06747788 0 0 153 255 
-1.483944 1.089991 1.399616 -0.9999278 0.01153355 0.00342232 0 0 158 255 
-1.502747 1.189223 1.778686 -0.9824399 0.1027581 -0.1557318 0 0 156 255 
-1.579842 1.114323 1.899055 -0.9211102 0.1430113 -0.3620816 0 40 255 255 
-1.479733 1.187483 2.04163 -0.9989706 -0.01825494 -0.04152489 55 255 199 255 
-1.173115 1.216168 2.561235 -0.8634877 -0.4522086 -0.2233753 255 106 0 255 
-1.233677 1.146023 2.931686 -0.9967856 -0.05446728 -0.05875087 34 255 220 255 
-1.235176 1.14599 2.930841 -0.9984262 0.008339383 -0.05545944 34 255 220 255 
-1.255993 1.219502 3.056714 -0.9955491 -0.01758155 -0.09258279 0 29 255 255 
-1.257275 1.138483 3.171652 -0.992792 -0.03283371 -0.1152621 0 74 255 255 
-1.215336 1.136377 3.475933 -0.995615 -0.06977477 -0.06230567 0 0 188 255 
-1.183807 1.279173 3.614425 -0.9961382 0.05445429 -0.06887202 0 0 146 255 
-1.198509 1.190373 3.744501 -0.9960333 0.03622431 -0.08127144 0 0 141 255 
-1.241947 1.191641 4.003304 -0.9545643 0.09135418 -0.2836565 0 0 149 255 
-1.346603 1.263378 4.107442 -0.7451545 0.2748223 -0.6076322 0 0 152 255 
-1.639095 1.219141 6.434906 -0.961706 0.06286842 0.2667768 91 255 163 255 
-2.209438 1.171373 5.813628 -0.9678832 -0.05531707 0.2452391 127 0 0 255 
-2.136257 1.301963 6.080159 -0.9707659 -0.01684972 0.2394376 127 0 0 255 
-1.991035 1.305236 6.142807 -0.5384971 -0.8295118 -0.1480925 127 0 0 255 
-1.522076 1.257536 6.8667 -0.8781683 0.02190983 -0.4778486 0 87 255 255 
-1.5686 1.333848 7.009922 -0.9148956 -0.008815087 -0.4035938 0 173 255 255 
-1.467102 1.261133 7.041652 -0.9511363 -0.0189514 -0.30819 0 2 255 255 
-1.621651 1.257775 7.129306 -0.9437281 -0.2396422 -0.2279212 44 255 210 255 
-1.184795 1.331902 8.426814 -0.7384062 0.2873313 -0.6100792 0 0 144 255 
-1.331699 1.247613 8.507475 -0.5674005 0.3151318 -0.7607549 0 0 146 255 
-1.325016 1.255333 8.511517 -0.5853746 0.3242327 -0.7431085 0 0 145 255 
-1.48851 1.043942 1.253935 -0.9947782 -0.02601243 -0.09869108 0 0 229 255 
-1.497906 1.042104 1.389599 -0.9932913 0.1052035 0.04801309 0 0 176 255 
-1.489506 1.015719 1.524593 -0.9990475 -0.01176784 -0.04203433 0 0 172 255 
-1.518307 0.9708237 1.642791 -0.9709353 0.1228502 -0.2054087 0 0 171 255 
-1.52779 1.042222 1.772236 -0.9775652 0.1162928 -0.175616 0 0 203 255 
-1.706173 1.039458 2.00617 -0.7832033 0.6211634 0.02736309 135 255 119 255 
-1.22805 0.9944751 2.674101 -0.9860039 -0.1586349 -0.05128622 127 0 0 255 
-1.213074 1.067377 2.546931 -0.9796079 -0.1944418 -0.05061191 127 0 0 255 
-1.228489 1.071256 2.802885 -0.9962394 -0.06697739 -0.05495502 255 74 0 255 
-1.227722 1.071178 2.802697 -0.995913 -0.071849 -0.05472249 255 74 0 255 
-1.255657 1.070624 3.056627 -0.9973373 0.0310325 -0.06599386 59 255 195 255 
-1.242882 0.9951402 3.192537 -0.993908 -0.02603301 -0.1070929 132 255 122 255 
-1.218174 1.063396 3.324932 -0.9975521 -0.03497857 -0.06055683 0 81 255 255 
-1.221657 1.061656 3.348349 -0.9981542 0.007459543 -0.06027289 0 63 255 255 
-1.212059 0.9872187 3.482632 -0.995029 0.0806431 -0.05842826 0 96 255 255 
-1.213257 1.037292 3.739161 -0.9859324 0.1268467 -0.1088405 0 0 198 255 
-1.279579 1.039906 3.991316 -0.9083154 0.2300626 -0.3493327 0 0 130 255 
-1.25872 1.117366 4.134576 -0.9140745 0.3732961 0.158486 0 0 131 255 
-2.092968 1.025979 5.801228 -0.9521379 -0.08479808 0.293672 127 0 0 255 
-2.097652 1.013574 5.784943 -0.9549433 -0.03617766 0.2945757 127 0 0 255 
-2.212418 1.003665 5.804422 -0.9548918 -0.04893185 0.2928956 127 0 0 255 
-1.432117 1.177841 6.767489 -0.9674476 -0.03288608 0.2509255 0 0 208 255 
-1.49316 1.107602 6.956605 -0.7229672 -0.06900731 -0.6874269 0 34 255 255 
-1.535679 1.184272 7.11348 -0.9143099 -0.006954819 -0.4049558 0 112 255 255 
-0.9686279 1.200567 8.05491 -0.7899112 0.3200389 -0.5230829 0 189 255 255 
-1.055405 1.136345 8.175104 -0.7487603 0.307266 -0.5873197 0 4 255 255 
-1.169949 1.071788 8.285755 -0.746487 0.2856833 -0.6009505 0 0 153 255 
-1.169968 1.071781 8.28582 -0.7442291 0.2870648 -0.6030901 0 0 153 255 
-1.234425 1.168656 8.41083 -0.7459579 0.2804725 -0.6040547 0 0 141 255 
-1.234364 1.168872 8.410851 -0.7450701 0.2807359 -0.6050272 0 0 141 255 
-1.491913 0.8980185 1.254225 -0.9990926 0.04249306 0.002609164 0 41 255 255 
-1.481194 0.8231279 1.382309 -0.9979034 0.01004336 -0.06393874 0 0 165 255 
-1.524128 0.8248692 1.640448 -0.9872716 0.083681 -0.1352499 0 0 175 255 
-1.53817 0.895992 1.767535 -0.9794326 0.1156279 -0.1653553 0 38 255 255 
-1.576073 0.8214059 1.887337 -0.9806554 0.01332103 0.1952864 61 255 193 255 
-1.611366 0.8195267 1.886588 -0.9857208 0.1145355 -0.1234332 64 255 190 255 
-1.243191 0.9211786 2.798897 -0.9960622 -0.01271049 -0.08773783 127 0 0 255 
-1.245407 0.9232898 3.060114 -0.9975261 -0.01076803 -0.0694593 255 32 0 255 
-1.249405 0.8460578 3.188639 -0.9947755 0.07741586 -0.06654355 217 0 0 255 
-1.187531 0.8507447 3.468895 -0.9938536 -0.09180718 -0.06185244 163 255 91 255 
-1.231258 0.9134536 3.322309 -0.9913153 0.11886 -0.05626616 145 255 109 255 
-1.228092 0.8634552 3.784839 -0.9851007 0.1385219 -0.101919 0 117 255 255 
-1.264004 0.8912297 3.995621 -0.9649349 0.2468438 -0.08926821 0 0 167 255 
-1.938301 0.8564898 5.939379 -0.9554819 -0.01725056 0.2945433 127 0 0 255 
-1.947479 0.857185 5.932606 -0.9556135 -0.01195463 0.2943791 127 0 0 255 
-1.932625 0.8468041 5.93367 -0.9552329 -0.02611776 0.2946996 127 0 0 255 
-1.536858 1.020553 7.113904 -0.9131125 0.009249381 -0.4076027 0 121 255 255 
-1.121666 0.9354995 7.770072 -0.9294221 0.285313 0.2340313 0 0 193 255 
-1.121666 0.9354995 7.770072 -0.9294221 0.285313 0.2340313 0 0 193 255 
-1.121666 0.9354995 7.770072 -0.9294221 0.285313 0.2340313 0 0 193 255 
-0.9778214 1.038609 8.059156 -0.7439323 0.252757 -0.6186109 0 149 255 255 
-1.104885 0.9740577 8.159308 -0.7433188 0.3104967 -0.5925111 0 0 199 255 
-1.218674 0.909511 8.270268 -0.7483518 0.2874572 -0.5977781 0 0 138 255 
-1.283325 1.005994 8.395217 -0.7367399 0.2917255 -0.6100082 0 0 129 255 
-1.296761 1.005785 8.390728 -0.6810292 0.3096464 -0.6635646 0 0 128 255 
-1.408203 0.9449013 8.49939 -0.8288382 0.2313697 -0.509406 0 0 181 255 
-1.392139 0.755784 0.4887094 -0.7638409 -0.6372063 -0.1025423 255 104 0 255 
-1.494923 0.6750044 1.126557 -0.9998646 -0.007307803 -0.01471409 0 0 244 255 
-1.488853 0.752896 0.9950562 -0.9978524 -0.02106309 -0.06203029 0 0 146 255 
-1.492863 0.7511451 1.252815 -0.9961532 -0.08169666 -0.03169978 0 0 222 255 
-1.481003 0.6803355 1.383069 -0.9941567 -0.03029599 -0.1036073 0 0 157 255 
-1.513611 0.7524568 1.511744 -0.9770615 0.07645017 -0.1987607 0 0 139 255 
-1.553711 0.677547 1.633348 -0.9823654 0.09133979 -0.1631393 0 0 245 255 
-1.562962 0.7495108 1.760507 -0.9827697 0.06945164 -0.171288 0 117 255 255 
-1.200375 0.6982969 3.202168 -0.9831289 -0.02235369 -0.1815433 127 0 0 255 
-1.108959 0.7017056 3.492179 -0.971187 -0.2328748 -0.05065086 127 0 0 255 
-1.238945 0.7147145 3.780978 -0.9566774 0.2150829 -0.1962339 144 255 110 255 
-1.259262 0.7160831 4.04144 -0.9934174 -0.07270673 -0.08851548 0 116 255 255 
-1.262447 0.7909137 4.440908 -0.9964727 -0.03359817 -0.07690084 0 0 130 255 
-1.287529 0.7155554 4.296666 -0.9880678 -0.1318044 -0.07968403 0 0 208 255 
-1.328773 0.7114882 4.540418 -0.9276388 -0.3221536 -0.188955 0 0 169 255 
-1.838802 0.7749183 6.135435 -0.9556884 -0.0308485 0.2927577 127 0 0 255 
-1.158539 0.8751599 7.393028 -0.9406173 -0.3365386 -0.04450482 0 0 174 255 
-1.041039 0.8763117 8.036015 -0.721832 0.3223681 -0.612403 0 24 255 255 
-1.048393 0.8754996 8.033319 -0.7479284 0.3042478 -0.589945 0 12 255 255 
-1.154858 0.8094266 8.142431 -0.7459144 0.2821173 -0.6033415 0 0 170 255 
-1.155216 0.8106068 8.143312 -0.7411672 0.2854772 -0.6075962 0 0 169 255 
-1.15406 0.8120552 8.143679 -0.734425 0.2887654 -0.6141942 0 0 170 255 
-1.268532 0.7458229 8.251022 -0.7441705 0.3028089 -0.5954133 0 0 145 255 
-1.2663 0.7481793 8.251309 -0.7465254 0.2956385 -0.5960684 0 0 145 255 
-1.342022 0.8437356 8.374575 -0.7086244 0.3331317 -0.6219929 0 0 151 255 
-1.448807 0.7726098 8.477636 -0.436129 0.8474491 -0.3026888 0 0 240 255 
-1.464947 0.607365 0.4375 -0.9947404 0.01498097 0.1013247 255 132 0 255 
-1.493664 0.5286803 1.126897 -0.9991951 0.00651733 -0.03956452 0 0 221 255 
-1.497387 0.5909343 0.992094 -0.9987769 -0.04334536 -0.02378264 0 0 153 255 
-1.489738 0.605046 1.255514 -0.9991208 -0.04156881 0.005483955 0 0 165 255 
-1.490799 0.5332887 1.383 -0.9521928 0.1369613 -0.2730766 0 0 145 255 
-1.522511 0.6062205 1.50906 -0.9785892 0.07598068 -0.1912841 0 0 171 255 
-1.250546 0.6424919 3.639473 -0.9311359 0.30706 -0.1967233 142 0 0 255 
-1.25526 0.565743 3.775827 -0.990716 -0.004311904 -0.1358826 197 0 0 255 
-1.261593 0.5637422 3.775276 -0.9898059 -0.04060011 -0.1365157 190 0 0 255 
-1.254059 0.6390812 3.910372 -0.9829043 0.07930364 -0.1661616 144 255 110 255 
-1.286797 0.6379873 4.429691 -0.9993932 0.03474456 -0.002521843 0 0 214 255 
-1.273491 0.563652 4.304495 -0.9946004 -0.07541716 -0.07129182 0 153 255 255 
-1.360527 0.5682348 4.550774 -0.9378309 -0.3177899 -0.1395804 0 64 255 255 
-1.510994 0.6645431 4.663498 -0.9009444 -0.3779542 -0.2131917 0 101 255 255 
-1.933105 0.6823522 5.941927 -0.9555668 -0.01803456 0.2942232 127 0 0 255 
-1.059856 0.7016585 7.447762 -0.946898 -0.3162202 0.05821306 0 0 250 255 
-1.061588 0.6859993 7.715016 -0.8687925 0.4899601 -0.07168728 0 1 255 255 
-1.086086 0.7143932 8.021416 -0.7550229 0.2852339 -0.5904078 0 0 216 255 
-1.084595 0.7138247 8.02097 -0.7548409 0.2857006 -0.5904149 0 0 218 255 
-1.506836 0.3943831 0.8453827 -0.9998224 -0.01702205 -0.00801456 0 0 158 255 
-1.504868 0.3889987 0.8432798 -0.9998406 -0.01780053 -0.001109064 0 0 156 255 
-1.487801 0.3850029 1.129851 -0.9994746 0.003621357 -0.03219715 0 0 168 255 
-1.499111 0.455747 0.9980907 -0.9996569 0.001822309 0.02610716 0 0 201 255 
-1.486736 0.4583112 1.257043 -0.9999529 -0.0008639018 -0.009664208 0 0 145 255 
-1.542778 0.4590193 1.502742 -0.9686964 0.1529795 -0.1955108 0 0 231 255 
-1.590607 0.4566109 1.751826 -0.9802394 0.1041209 0.1681925 194 255 60 255 
-1.216732 0.4180333 3.785205 -0.9451783 -0.1502336 -0.2899446 127 0 0 255 
-1.167671 0.4158193 4.318022 -0.7073839 -0.627432 -0.3254794 255 248 0 255 
-1.225117 0.4994003 4.132637 -0.8049815 -0.5364543 -0.2534216 255 241 0 255 
-1.293575 0.4883517 4.430613 -0.9992349 0.03899167 -0.002980232 0 204 255 255 
-1.399876 0.5158573 4.697975 -0.8488314 -0.5277036 0.03184861 0 51 255 255 
-1.380074 0.4306062 4.715588 -0.800742 -0.5383069 -0.2627521 0 145 255 255 
-1.34293 0.4180339 4.860633 -0.8441305 -0.5195499 -0.132331 0 25 255 255 
-0.9030609 0.4192435 7.650496 -0.7030944 0.7070153 -0.07606928 83 255 171 255 
-1.181023 0.3195902 0.4386282 -0.7295841 0.4116283 -0.5461406 135 0 0 255 
-1.185406 0.3336792 0.4333115 -0.9602064 0.005602564 -0.2792353 136 0 0 255 
-1.455074 0.3119464 0.7287235 -0.9540065 0.05640211 -0.2944335 0 0 182 255 
-1.455235 0.3079073 0.7250614 -0.9404767 0.03226479 -0.338322 0 0 185 255 
-1.449665 0.3368257 0.6351213 -0.9739978 0.1295291 -0.1858797 0 1 255 255 
-1.497559 0.238571 0.8484564 -0.9998575 -0.01194032 0.01191393 0 0 172 255 
-1.495728 0.2347401 0.8458767 -0.9999275 0.009532543 0.007400185 0 0 175 255 
-1.491089 0.3119523 1.002068 -0.9929764 0.1137112 0.03268927 0 0 155 255 
-1.497559 0.2331693 1.127264 -0.9985489 0.04456972 -0.03023526 0 0 134 255 
-1.494072 0.31166 1.256143 -0.9878101 0.06588157 -0.1410337 0 0 161 255 
-1.536552 0.2413944 1.369803 -0.9632873 0.1836375 -0.1958442 0 38 255 255 
-1.585548 0.2368567 1.619237 -0.9396244 0.3356192 -0.06682448 160 255 94 255 
-1.562019 0.2386121 1.624921 -0.9872378 0.01800794 0.1582333 176 255 78 255 
-1.108681 0.3431651 4.01235 -0.9831157 -0.1714823 -0.06384969 127 0 0 255 
-1.236649 0.3341751 4.194076 -0.984501 -0.1393309 -0.1065078 127 0 0 255 
-1.283524 0.319856 4.605822 -0.9854268 -0.1295076 -0.1102773 176 255 78 255 
-1.268848 0.2360299 4.750078 -0.9476004 -0.2539626 -0.1937965 193 255 61 255 
-1.410389 0.278069 5.127953 -0.7913446 -0.5415106 -0.2837968 0 133 255 255 
-1.270912 0.2562591 5.316433 -0.9929715 0.08581753 -0.0815036 0 0 189 255 
-1.384178 0.3516362 5.299826 -0.9678664 -0.1869548 -0.168176 0 0 187 255 
-1.289642 0.2608251 5.580331 -0.977599 -0.05280074 -0.2037456 0 0 148 255 
-0.8329163 0.05495974 0.1946526 -0.6656102 0.1939815 -0.7206479 0 151 255 255 
-1.206837 0.1875645 0.4085989 -0.9302052 -0.02549911 -0.3661533 247 0 0 255 
-1.344986 0.1044396 0.506691 -0.7550144 0.250722 -0.605881 0 213 255 255 
-1.300877 0.09611571 0.5230255 -0.6842888 0.2801325 -0.6732571 7 255 247 255 
-1.334446 0.1067289 0.5022364 -0.7739072 0.2330097 -0.5888759 0 236 255 255 
-1.456867 0.165504 0.7286234 -0.9843175 -1.092458e-05 -0.1764043 0 0 225 255 
-1.454308 0.1612707 0.7257719 -0.9831394 0.003800434 -0.182818 0 0 226 255 
-1.484924 0.1228106 0.926774 -0.9998281 0.01520035 -0.01063341 0 0 216 255 
-1.504982 0.1616711 0.9977694 -0.9991602 0.0109399 0.03949079 0 0 166 255 
-1.507965 0.09361351 1.143028 -0.994499 0.06063383 -0.08541636 0 0 140 255 
-1.555534 0.1669142 1.494884 -0.9822739 0.08320791 -0.1679704 53 255 201 255 
-1.522755 0.08710803 1.634252 -0.9549667 0.2270449 -0.1910233 219 0 0 255 
-1.611938 0.09148981 1.622554 -0.9836704 -0.05934411 -0.1699112 255 27 0 255 
-1.192768 0.1497345 4.317234 -0.8653941 0.1082418 -0.4892612 127 0 0 255 
-1.225647 0.1879973 4.581566 -0.933427 -0.3359297 -0.1259573 153 0 0 255 
-1.261066 0.1794058 4.838436 -0.9766411 -0.1734408 -0.1268446 214 255 40 255 
-1.287724 0.1085873 4.950899 -0.9710844 -0.2009442 -0.1289032 255 233 0 255 
-1.270161 0.102761 5.31778 -0.9920962 -0.09265073 -0.0846148 0 133 255 255 
-1.258118 0.1075916 5.587537 -0.9822837 0.1704869 -0.07780266 0 10 255 255 
-1.444214 0.1061873 5.968718 -0.8116198 -0.5758346 -0.09842846 0 0 220 255 
-0.9784126 0.1033905 7.628274 -0.7480878 0.2761501 -0.6034116 0 137 255 255 
-1.169456 0.1347537 7.850627 -0.7458532 0.2744523 -0.6069427 0 0 152 255 
-1.63755 -0.08794458 -1.209986 -0.8061675 -0.5447391 -0.2309848 0 0 138 255 
-0.8042297 -0.01591168 0.06604195 -0.9691824 0.1760703 -0.1722941 0 3 255 255 
-0.8385773 -0.09298682 0.190486 -0.8974218 0.2683756 -0.3501544 0 0 197 255 
-1.099773 0.0189289 0.2818804 -0.678562 0.4522223 -0.5788337 178 255 76 255 
-1.237354 0.002592813 0.4127026 -0.7087187 0.2037843 -0.6754178 166 255 88 255 
-1.318108 0.02173749 0.3576365 -0.9148876 0.3494288 -0.2021877 115 255 139 255 
-1.373989 -0.04332906 0.4957829 -0.7582883 0.2248103 -0.6119302 0 42 255 255 
-1.379044 -0.05428199 0.4891138 -0.7381592 0.2247698 -0.6360819 0 39 255 255 
-1.370216 -0.04088994 0.4907913 -0.7836772 0.2112584 -0.5841391 0 53 255 255 
-1.361809 0.01697699 0.383357 -0.9433327 0.1666001 -0.2869993 0 248 255 255 
-1.474442 0.04410842 0.6056242 -0.9861468 0.05132892 -0.1577362 0 0 189 255 
-1.477398 0.01948883 0.7264528 -0.9976383 -0.02553225 -0.06376438 0 0 170 255 
-1.494995 -0.05252555 0.8516064 -0.9997811 0.001761762 -0.0208607 0 0 208 255 
-1.532104 0.01885221 1.267859 -0.9800035 0.1061751 -0.168283 0 0 251 255 
-1.56073 0.02119645 1.493017 -0.9959418 0.03272436 -0.08384281 154 255 100 255 
-1.215878 -0.04762331 4.705109 -0.8808478 0.04524418 -0.471233 127 0 0 255 
-1.277485 -0.04392132 4.954007 -0.9898381 -0.1212871 -0.07423103 127 0 0 255 
-1.246098 0.02256514 5.18578 -0.9861248 -0.1444591 -0.08178216 218 255 36 255 
-1.254868 0.02393927 5.185072 -0.9929864 -0.08725653 -0.07977527 214 255 40 255 
-1.299873 0.02604229 5.710634 -0.9923093 -0.08658007 -0.08846608 0 19 255 255 
-1.300251 -0.05055963 5.845367 -0.9850104 -0.143657 -0.09548536 0 0 252 255 
-1.502441 -0.04004525 6.115242 -0.6679132 -0.6626854 -0.3387318 0 75 255 255 
-1.379028 -0.06490327 6.498394 -0.8700931 -0.04482401 -0.4908458 0 0 160 255 
-0.9430923 0.007975589 7.496481 -0.7327453 0.3172546 -0.6020244 0 211 255 255 
-0.9683189 0.02075256 7.483493 -0.7816355 0.4330338 -0.4489176 0 154 255 255 
-1.048038 -0.05070834 7.603596 -0.8211306 0.2391196 -0.518233 0 19 255 255 
-0.8176651 -0.2348616 -0.0640831 -0.6486282 0.7597115 -0.04603812 0 0 167 255 
-0.9539604 -0.2195552 0.1846514 -0.9209509 -0.3371027 -0.1954764 0 0 187 255 
-1.192436 -0.1471052 0.4489737 -0.3271136 0.1094971 -0.9386194 116 255 138 255 
-1.498863 -0.1345336 0.7482405 -0.9988506 -0.03899958 -0.02784929 0 0 201 255 
-1.484398 -0.1260213 0.7264795 -0.9987864 -0.03737506 -0.03207749 0 0 189 255 
-1.499226 -0.2001383 0.5989389 -0.9939864 0.08315073 0.07125351 0 0 138 255 
-1.486649 -0.2078712 0.8760653 -0.9998734 0.006696998 -0.01440415 0 0 147 255 
-1.48621 -0.2072383 0.863327 -0.9997094 0.004192306 -0.02371782 0 0 149 255 
-1.508141 -0.1283273 1.007332 -0.9980246 -0.02398845 -0.05805935 0 0 137 255 
-1.476444 -0.1320498 1.011894 -0.9996914 -0.02316391 0.00899455 0 0 150 255 
-1.522991 -0.1269771 1.279078 -0.9977901 0.06034881 -0.02780199 0 123 255 255 
-1.543121 -0.1996866 1.131036 -0.987717 0.1127375 -0.1081933 0 0 224 255 
-1.592316 -0.2035664 1.359264 -0.9942799 0.09586067 -0.04710123 114 255 140 255 
-1.535801 -0.1243165 1.498611 -0.9417722 0.02150321 0.3355632 255 126 0 255 
-1.259315 -0.1231882 4.825167 -0.9838288 -0.1488993 -0.09955101 127 0 0 255 
-1.218441 -0.1434388 5.291622 -0.5702059 0.3485115 -0.743912 190 0 0 255 
-1.253696 -0.2016606 5.584877 -0.9957978 0.02102705 -0.08913055 255 129 0 255 
-1.286987 -0.1707949 5.970713 -0.814117 -0.5282095 -0.2412654 0 77 255 255 
-1.437595 -0.1904837 6.124487 -0.7292219 -0.6256195 -0.2771927 0 121 255 255 
-1.462299 -0.1296425 6.313461 -0.7571167 -0.6123963 -0.227475 0 32 255 255 
-1.365807 -0.2158831 6.502556 -0.942881 -0.09812516 -0.3183489 0 0 164 255 
-0.996048 -0.1381961 7.476484 -0.7776865 0.3050177 -0.5496972 0 104 255 255 
-0.9559898 -0.2310299 7.342022 -0.7332202 0.6443856 -0.2171528 0 194 255 255 
-1.092915 -0.1929726 7.604005 -0.7358015 0.3046907 -0.6047807 0 0 220 255 
-1.152447 -0.1181541 7.713585 -0.771521 0.2580062 -0.5815395 0 0 155 255 
-1.268559 -0.1864769 7.817006 -0.7044189 0.3140324 -0.6365359 0 0 131 255 
2.050083 -0.2980512 -1.572639 -0.8531094 -0.08537824 -0.514699 0 201 255 255 
-1.004429 -0.3618571 0.3185549 -0.3957559 -0.5466926 -0.7379048 0 0 149 255 
-1.158596 -0.2499509 0.387538 -0.4535974 0.1824292 -0.8723348 0 137 255 255 
-1.374271 -0.3949196 0.5012941 -0.4281422 0.01649894 -0.903561 0 0 204 255 
-1.494392 -0.2805694 0.7484627 -0.9996502 -0.02609787 -0.004267454 0 0 180 255 
-1.499016 -0.3545591 0.6217813 -0.9775314 0.2102917 -0.0144816 0 0 174 255 
-1.487556 -0.3528906 0.8611546 -0.9999808 -0.0007085706 -0.006235093 0 0 138 255 
-1.515705 -0.2815134 0.9858494 -0.9788873 0.0892571 -0.18388 0 0 171 255 
-1.283386 -0.2994747 5.203546 -0.8308238 0.2260341 -0.5085673 127 0 0 255 
-1.344524 -0.3711847 5.323359 -0.8483195 0.1768351 -0.4990817 127 0 0 255 
-1.380932 -0.2959093 5.473511 -0.7936494 0.550725 -0.2584999 127 0 0 255 
-1.300602 -0.324358 5.986712 -0.8335463 -0.5087168 -0.2154251 144 255 110 255 
-1.338722 -0.3712031 6.254335 -0.8446207 -0.4840784 -0.2286574 15 255 239 255 
-1.40456 -0.2990026 6.337502 -0.8777254 -0.4472372 -0.1719805 0 92 255 255 
-1.095303 -0.310456 7.476637 -0.8298252 0.2188615 -0.5133129 0 0 212 255 
-1.200302 -0.2765213 7.697315 -0.7916908 0.2548115 -0.5552441 0 0 135 255 
-1.142399 -0.3526819 7.588207 -0.7371336 0.2914494 -0.6096646 0 0 199 255 
-1.547222 -0.4368354 -1.388433 -0.6938646 0.328704 -0.6407073 0 0 133 255 
-1.652176 -0.4901668 -1.288471 -0.7164617 0.3708443 -0.5908943 0 0 176 255 
-1.675873 -0.4789364 -1.035751 -0.9161618 0.3285488 -0.2295693 0 0 163 255 
-1.224728 -0.4200409 0.3678951 -0.4525561 0.2202346 -0.8641119 0 112 255 255 
-1.475105 -0.426081 0.7357502 -0.9994407 0.0175577 -0.02845249 0 0 157 255 
-1.495792 -0.4292487 0.9827585 -0.9873372 -0.09025087 -0.1304632 0 0 203 255 
-1.39954 -0.4457319 5.469788 -0.8587009 0.1073402 -0.5011096 127 0 0 255 
-1.032745 -0.5536739 5.937265 -0.7639884 -0.6316276 -0.1317879 127 0 0 255 
-1.255695 -0.4492406 6.125046 -0.930337 -0.318012 -0.1825967 255 161 0 255 
-1.241238 -0.5218887 6.289402 -0.8326113 -0.4819748 -0.2728728 255 203 0 255 
-1.352791 -0.4122132 6.414967 -0.8775902 -0.4240221 -0.2236955 0 158 255 255 
-1.298862 -0.4831848 6.575179 -0.9717604 -0.2166037 -0.09362306 0 158 255 255 
-1.429306 -0.4034573 6.843668 -0.942919 -0.3181136 -0.09852386 0 4 255 255 
-1.299519 -0.4798689 7.029245 -0.9784261 -0.1857844 -0.09037064 0 0 168 255 
-1.14703 -0.4685352 7.367733 -0.9678286 0.1742892 -0.1814681 0 0 159 255 
-1.180962 -0.5054529 7.562018 -0.7959124 0.2516148 -0.5506479 0 0 139 255 
-1.365696 -0.5344031 7.892542 -0.8526166 0.5224283 -0.01061676 0 0 152 255 
1.826 -0.6711344 -1.596443 -0.5786577 0.3444021 -0.7392845 0 0 147 255 
-1.682499 -0.6338959 -1.297939 -0.917434 0.2608001 -0.3004964 0 0 171 255 
-1.690079 -0.5637614 -1.180464 -0.9730414 0.1682227 -0.1577727 0 0 155 255 
-1.687008 -0.640254 -1.047219 -0.9472729 0.2923458 -0.1311775 0 0 181 255 
-1.688499 -0.5814332 -0.9133711 -0.99701 -0.01376944 -0.07603534 0 0 159 255 
-1.659653 -0.651785 -0.7862225 -0.9979825 -0.0519475 0.0365074 0 0 176 255 
-1.246147 -0.5989623 -0.1140337 -0.3796038 0.6725386 -0.63529 0 0 187 255 
-1.488655 -0.6653358 0.5966911 -0.865221 -0.4969105 0.06688289 0 0 160 255 
-0.945549 -0.6572849 6.084145 -0.7724036 -0.5849324 -0.2474823 127 0 0 255 
-1.179459 -0.5766165 6.020809 -0.9501415 -0.246016 -0.19159 127 0 0 255 
-1.191246 -0.6368945 6.605602 -0.8930122 -0.4261656 -0.1446116 206 255 48 255 
-1.33886 -0.672964 6.882767 -0.856449 -0.4483931 -0.2558098 0 248 255 255 
-1.334003 -0.5989242 6.728664 -0.8728043 -0.4305688 -0.2298335 10 255 244 255 
-1.272476 -0.5634435 7.180908 -0.9648252 -0.04163957 0.2595725 0 0 161 255 
-1.191704 -0.6517717 7.087063 -0.9906042 0.08466409 -0.1074018 0 54 255 255 
-1.203125 -0.6394478 7.332354 -0.9837031 0.1413721 -0.1110976 0 0 172 255 
-1.213333 -0.683939 7.520473 -0.7365783 0.2789296 -0.6161586 0 0 161 255 
-1.546177 -0.6942838 7.830732 -0.6422154 0.3321397 -0.6908265 0 130 255 255 
-1.6936 -0.7072924 -1.180721 -0.9718824 0.1998696 -0.1244896 0 0 154 255 
-1.653843 -0.7911121 -1.031638 -0.9926408 -0.009528966 0.1207179 0 0 176 255 
-1.663906 -0.7960316 -0.7877331 -0.9998228 0.01222012 -0.0142993 0 0 173 255 
-1.64632 -0.7245913 -0.6556854 -0.9987099 0.008882052 -0.04999495 0 0 184 255 
-1.652836 -0.8026986 -0.5305672 -0.9944176 0.05186496 -0.0918922 0 0 188 255 
-1.657768 -0.7970557 -0.5327158 -0.9977801 0.06558001 -0.01155108 0 0 187 255 
-1.64933 -0.8004904 -0.5278082 -0.9858209 0.06292763 -0.1555521 0 0 191 255 
-1.683514 -0.807283 -0.2844076 -0.9930535 0.1171485 -0.0109621 0 0 162 255 
-1.574654 -0.7270665 0.3822727 -0.998566 0.004172916 -0.05337173 0 0 131 255 
-1.458916 -0.8002982 0.9425173 -0.9238997 -0.07972132 0.3742362 0 0 212 255 
-1.394428 -0.8016452 1.066705 -0.9229223 -0.09976214 0.3718358 0 29 255 255 
-1.068581 -0.7308485 6.113041 -0.9909848 -0.09752892 -0.09185407 127 0 0 255 
-1.190498 -0.75696 6.471517 -0.934647 -0.3356366 -0.1173992 127 0 0 255 
-1.13406 -0.8265177 6.630968 -0.805005 -0.5254798 -0.2753859 127 0 0 255 
-1.262775 -0.7511509 6.751045 -0.8552927 -0.4594016 -0.239636 255 182 0 255 
-1.262062 -0.8249588 6.907446 -0.853851 -0.4484898 -0.2641889 255 137 0 255 
-1.192226 -0.7312632 7.211171 -0.9724616 0.2098288 -0.1014419 0 68 255 255 
-1.649979 -0.93739 -1.03126 -0.9961661 0.06323837 0.06045097 0 0 176 255 
-1.674976 -0.8675882 -0.9177771 -0.9996392 0.009695002 -0.02504963 0 0 161 255 
-1.667168 -0.9401542 -0.7883482 -0.9982206 0.04466298 -0.03950107 0 0 195 255 
-1.649067 -0.869996 -0.6587973 -0.9819881 0.167192 -0.0880149 0 0 177 255 
-1.645557 -0.8690017 -0.6553802 -0.9883052 0.1241127 -0.0885902 0 0 181 255 
-1.67688 -0.9318126 -0.55305 -0.9983802 0.03305509 -0.04631259 0 0 161 255 
-1.670643 -0.8610253 -0.4251642 -0.99238 0.08961527 -0.08455697 0 0 167 255 
-1.670891 -0.9360737 -0.2997589 -0.9783006 0.2070141 -0.008499056 0 0 162 255 
-1.675873 -0.9518458 -0.2845879 -0.9836793 0.1797534 -0.007964969 0 0 160 255 
-1.625759 -0.8454604 0.05937481 -0.9154397 0.2259628 0.3330328 0 0 199 255 
-1.573765 -0.8928132 0.1259718 -0.9686658 -0.07422505 0.2370181 0 11 255 255 
-1.504044 -0.9599314 0.2736721 -0.9836612 -0.1798502 -0.008060932 0 130 255 255 
-1.489754 -0.9730513 0.4992352 -0.9609591 -0.2481784 0.1223278 0 31 255 255 
-1.497215 -0.9704035 1.253399 -0.3680397 0.5564891 -0.7448932 0 0 216 255 
-1.119377 -0.9111559 6.492258 -0.924867 -0.3649673 -0.1068601 127 0 0 255 
-1.20372 -1.01535 7.247948 -0.9842932 -0.1466459 -0.09829819 255 71 0 255 
-1.308044 -0.9988127 7.489216 -0.7459337 0.253518 -0.6158832 75 255 179 255 
-1.681023 -1.005216 -1.170004 -0.9917125 0.1111903 -0.06436846 0 0 159 255 
-1.67345 -1.081857 -1.03934 -0.9986651 -0.05156413 -0.002947807 0 0 168 255 
-1.677166 -1.01232 -0.9182072 -0.9995995 -0.008009481 -0.02711812 0 0 163 255 
-1.675507 -1.084304 -0.7914906 -0.999484 0.02238333 -0.02304873 0 0 163 255 
-1.685593 -1.003527 -0.6816273 -0.9999429 0.005925141 -0.008850873 0 0 171 255 
-1.672611 -1.013867 -0.6639977 -0.9931585 0.07531513 -0.08924493 0 0 173 255 
-1.683777 -1.07599 -0.5556049 -0.9965391 0.03392086 -0.07589109 0 0 154 255 
-1.703468 -1.079775 -0.3114862 -0.9592295 0.2826282 -0.0008648932 0 0 140 255 
-1.591061 -1.108266 0.9742851 -0.5234755 0.7865342 -0.3276233 0 0 187 255 
-1.69891 -1.108294 0.8927059 -0.7616674 0.5977615 -0.2500873 0 0 147 255 
-1.669865 -1.108579 0.9442654 -0.7079375 0.6885406 -0.1572803 0 0 165 255 
-1.723831 -1.032367 0.8132191 -0.7679643 0.6234374 -0.1468181 0 0 143 255 
-1.584888 -1.115011 1.226371 -0.7680606 0.57577 -0.2803074 0 0 140 255 
-1.66832 -1.056351 1.429273 -0.8898696 -0.338314 0.3060629 0 0 187 255 
-1.610718 -1.057661 1.446055 -0.9197743 -0.1736774 0.3519256 0 0 196 255 
-1.863876 -1.082835 1.523042 -0.8293489 -0.5114819 0.2248691 0 44 255 255 
-1.651268 -1.082538 2.072985 -0.8778676 -0.4170642 0.2353834 147 255 107 255 
-1.207352 -1.178365 7.245617 -0.9815157 -0.1473242 0.1221541 127 0 0 255 
-1.228268 -1.104797 7.099511 -0.9144139 0.201035 -0.351328 127 0 0 255 
-1.385807 -1.156715 7.461466 -0.8405002 0.5321007 -0.1021179 127 0 0 255 
-1.717884 -1.208515 -1.307024 -0.9220966 0.3858811 0.02887726 0 0 144 255 
-1.672016 -1.149153 -1.165567 -0.9977583 -0.06673276 -0.005088955 0 0 163 255 
-1.662121 -1.218979 -1.036511 -0.9970821 0.02185967 0.07314 0 0 174 255 
-1.673611 -1.147025 -0.9178877 -0.9985593 -0.04036853 -0.03535482 0 0 177 255 
-1.669106 -1.218046 -0.790781 -0.9998664 0.01220433 0.01085415 0 0 184 255 
-1.677071 -1.146094 -0.6672277 -0.9919697 0.02999058 -0.122868 0 0 164 255 
-1.675816 -1.234872 -0.532793 -0.999369 -0.03411273 -0.009874523 0 0 158 255 
-1.674347 -1.16018 -0.4093409 -0.9995233 -0.02907709 -0.01035973 0 0 160 255 
-1.672146 -1.220414 -0.3036118 -0.9959388 -0.08968513 -0.007889658 0 0 171 255 
-1.659031 -1.180777 1.072855 -0.4596657 0.852109 -0.2502346 0 0 175 255 
-1.711311 -1.253432 1.185527 -0.7602186 0.6474263 0.05391297 0 0 141 255 
-1.783203 -1.203398 1.397869 -0.6494403 -0.6911029 -0.3171793 0 0 160 255 
-1.777199 -1.234673 1.550922 -0.8309923 -0.508742 0.2250163 0 0 145 255 
-1.756329 -1.21102 1.998033 -0.9302857 -0.3467394 0.119752 0 75 255 255 
-1.832306 -1.156177 1.842765 -0.9071738 -0.3778336 -0.1851435 0 95 255 255 
-1.684055 -1.148691 2.140107 -0.9160501 -0.04401511 -0.3986407 71 255 183 255 
-1.672367 -1.35184 -1.809704 -0.9728854 0.001910386 -0.2312803 0 0 141 255 
-1.795338 -1.274321 -1.950207 -0.9996431 -0.01486335 -0.02217343 0 0 214 255 
-1.674278 -1.293358 -1.172441 -0.9999275 -0.002356692 -0.01178899 0 0 159 255 
-1.687557 -1.363515 -1.045543 -0.9982268 0.05905325 -0.007520556 0 0 151 255 
-1.676147 -1.292136 -0.9194603 -0.9996516 0.0154179 -0.02141249 0 0 175 255 
-1.666801 -1.362639 -0.790658 -0.9999475 -0.0006835547 -0.01024696 0 0 176 255 
-1.67477 -1.29064 -0.6670828 -0.9933203 -0.02148673 -0.1133752 0 0 163 255 
-1.674187 -1.362731 -0.5345421 -0.9997706 -0.01858167 -0.01062736 0 0 160 255 
-1.664063 -1.29482 -0.4252815 -0.9992847 -0.03142592 -0.02102435 0 0 164 255 
-1.664387 -1.366022 -0.2992325 -0.9549121 0.1054174 0.2775424 0 0 165 255 
-1.659439 -1.325527 0.8221254 -0.9998001 0.00319751 -0.01975074 0 0 174 255 
-1.642239 -1.397977 0.6989174 -0.9985753 -0.00294601 -0.05327611 0 0 186 255 
-1.645435 -1.397815 0.6974068 -0.9965686 -0.02518187 -0.07884511 0 0 183 255 
-1.642223 -1.397155 0.6973076 -0.9986638 -0.03530598 -0.03772786 0 0 186 255 
-1.662064 -1.39966 0.9476452 -0.9911714 -0.03480209 -0.1279393 0 0 166 255 
-1.684338 -1.326189 1.071205 -0.9855257 -0.05376427 0.1607747 0 0 171 255 
-1.643276 -1.325985 1.076564 -0.991626 0.1035473 -0.07716618 0 0 204 255 
-1.672352 -1.376959 2.014105 -0.9751764 -0.2195284 -0.02895299 0 0 158 255 
-1.821743 -1.293916 2.105834 -0.7693861 -0.161564 -0.6180141 0 54 255 255 
1.466526 -1.573712 -2.347408 -0.9821287 0.1436641 0.1215878 174 255 80 255 
1.337528 -1.493418 -1.634146 -0.3667456 -0.02817584 -0.9298946 0 136 255 255 
-1.635303 -1.497375 -2.075838 -0.6772381 -0.1219033 -0.7255949 0 0 211 255 
-1.674473 -1.495242 -1.810417 -0.9832091 0.01731829 -0.1816607 0 0 158 255 
-1.703129 -1.42364 -1.690367 -0.9657632 0.03147112 -0.2575079 0 0 144 255 
-1.722095 -1.495028 -1.566252 -0.9835526 -0.01399591 -0.1800794 0 0 146 255 
-1.69582 -1.424548 -1.427006 -0.9882948 0.1095982 -0.106124 0 0 154 255 
-1.692101 -1.516957 -1.296511 -0.9996615 -0.01822717 -0.01857862 0 0 149 255 
-1.68972 -1.494873 -1.297161 -0.9936333 -0.08996721 -0.06781068 0 0 153 255 
-1.687946 -1.439943 -1.176388 -0.9997694 0.01728164 -0.01272032 0 0 165 255 
-1.684772 -1.510008 -1.044226 -0.9992789 0.0375458 -0.005702198 0 0 181 255 
-1.664074 -1.507163 -0.790513 -0.9892697 -0.1231292 0.07863563 0 0 166 255 
-1.667526 -1.434877 -0.6655722 -0.9948976 -0.05660171 -0.08351631 0 0 163 255 
-1.667778 -1.435234 -0.6638756 -0.9851576 -0.067847 -0.1576733 0 0 162 255 
-1.656677 -1.507968 -0.532774 -0.9973583 0.01873975 -0.07017256 0 0 170 255 
-1.67321 -1.506569 -0.2848711 -0.998012 0.06273516 0.006068647 0 0 176 255 
-1.647366 -1.46862 0.5699816 -0.9731219 0.05546023 -0.2235105 0 0 179 255 
-1.646301 -1.542798 0.6974812 -0.9969426 0.04305194 -0.06521192 0 0 191 255 
-1.650795 -1.470765 0.8219328 -0.9940091 0.03598559 -0.1032047 0 0 186 255 
-1.655464 -1.471658 0.8225946 -0.9921657 0.04990946 -0.1145227 0 0 182 255 
-1.667671 -1.544554 0.9455118 -0.9971927 0.04942737 -0.05624349 0 0 164 255 
-1.643047 -1.544973 1.201168 -0.978888 -0.1797642 -0.09727415 0 0 184 255 
-1.653645 -1.472308 1.072929 -0.998892 0.03763257 -0.02823925 0 0 203 255 
-1.653111 -1.472425 1.075729 -0.9992816 0.001429346 0.03787509 0 0 202 255 
-1.652451 -1.467632 1.329174 -0.9794711 -0.1449478 -0.1400959 0 0 180 255 
-1.581669 -1.531785 1.598544 -0.9609475 -0.1533377 -0.2303655 0 18 255 255 
-1.648861 -1.456437 1.890355 -0.9943293 -0.1006325 0.0343813 0 0 141 255 
-1.648674 -1.524078 2.021214 -0.9968064 -0.07714389 -0.02062392 0 0 147 255 
1.223969 -1.635583 -2.523081 -0.9769124 0.1797687 -0.1154365 255 0 0 255 
1.567001 -1.690685 -2.042986 -0.9703979 -0.1007233 0.2195043 0 0 145 255 
-1.605827 -1.577955 -1.906492 -0.8293941 0.1791359 -0.5291651 0 0 139 255 
-1.703693 -1.638221 -1.820715 -0.9890493 -0.1312423 -0.06750697 0 0 146 255 
-1.687733 -1.567587 -1.685095 -0.9798316 -0.03484005 -0.1967616 0 0 149 255 
-1.686451 -1.631747 -1.543957 -0.9728556 0.1252936 -0.1945593 0 0 163 255 
-1.64875 -1.632304 -1.531359 -0.9742019 0.2248123 0.01973075 0 0 187 255 
-1.680428 -1.568649 -1.421747 -0.9969433 -0.05108815 -0.0591086 0 0 171 255 
-1.684315 -1.666776 -1.248129 -0.9835402 -0.1708798 0.05872065 0 0 157 255 
-1.702179 -1.59216 -1.128862 -0.9988695 -0.04750661 -0.001871943 0 0 149 255 
-1.695953 -1.585151 -1.172112 -0.9952673 -0.09710556 0.003708154 0 0 151 255 
-1.670528 -1.583734 -0.9189844 -0.999591 -0.02755653 -0.007643938 0 0 161 255 
-1.686939 -1.656638 -1.001538 -0.9946276 -0.05616743 -0.08695844 0 0 149 255 
