ply
format ascii 1.0
comment generated by Wei
element vertex 995
property float x
property float y
property float z
end_header
-3.4599 -2.61866 14.4607
10.844 -4.44224 -1.01251
0.0715794 -1.83968 3.67054
8.53186 4.05909 -2.05809
5.2504 -5.973 0.627965
1.94133 -8.481 5.68514
3.79877 -7.02069 0.864406
-2.59617 -8.23373 -4.93567
-1.96053 -0.627395 8.28853
-2.37641 -4.4998 0.779413
-4.21184 1.03102 0.886068
-2.24434 -6.39365 -4.45978
4.11771 1.55637 0.792018
5.85395 -5.70936 4.84158
-1.14347 -4.35689 2.59984
14.1149 5.41127 -3.25203
-0.670879 5.43188 -3.44347
1.81446 2.41513 -4.29522
-1.4959 5.22201 -3.37265
-2.38419 -10.1969 2.77986
0.583257 -4.30332 -6.03392
-1.05837 -1.43595 -3.87392
-7.45256 -0.906574 -9.3107
-4.47246 3.00966 -4.27782
-8.34088 0.76517 -9.27563
-2.01682 0.365345 7.48072
-1.92308 -4.04991 -3.90761
6.21609 -7.26444 5.6989
-1.39426 -5.10506 2.767
-7.22869 2.5384 -7.24227
0.490985 6.03174 -3.38782
8.06073 8.63584 -1.91416
10.5953 8.93991 -2.23856
0.671222 0.689528 -4.40755
-4.076 2.1252 -4.24167
-0.504771 -5.03594 3.53476
2.02857 -8.07344 3.53113
-0.755668 -1.92216 6.07108
13.6035 9.72689 -3.23344
-5.70484 -2.11473 -8.16741
4.08074 -0.96779 -4.85324
10.3255 2.51937 -3.1361
-1.23179 -8.57847 4.07616
8.0305 8.14708 -1.16155
1.84263 -7.66414 5.48364
2.96525 3.53601 2.3009
-2.58898 -1.13583 10.5239
1.0694 4.17089 -4.05294
-1.81016 -0.0747046 2.37779
-0.0449516 -7.32271 4.4255
-2.70898 2.61222 2.79636
4.25217 -0.446094 -4.14267
5.57486 -0.199189 -1.72818
7.19302 -3.03625 -5.74903
0.556376 -1.18315 3.58315
-1.07096 -1.75092 6.8868
-7.35604 -1.79564 -9.64985
8.96444 -2.58335 -0.341284
-1.17844 0.0905139 3.23192
13.4996 10.179 -2.55337
5.20058 -5.81091 -6.71068
3.25153 -7.38996 -1.66973
-2.22483 -4.24165 12.566
7.92445 -6.62131 4.86218
1.5292 -4.0193 -7.1463
-2.2896 -3.4557 -3.00542
-3.00654 -5.88702 -1.52729
2.35071 6.293 -0.910182
1.28345 -1.40054 3.29472
2.63792 3.92593 3.48373
12.7122 3.27979 -2.95405
1.94636 -5.50923 -8.07281
-1.41783 0.534431 5.60048
10.4785 -5.1724 2.00424
-2.58801 -4.0582 -2.53432
0.183883 -5.01297 3.94573
-1.05519 -0.271426 5.37059
-2.88899 -5.1106 -1.53078
2.23128 -5.75323 5.39646
-0.749853 4.44585 -3.59601
-0.603574 -8.39113 -7.04075
-6.24966 1.48143 -6.78051
-3.25261 4.56903 -2.51691
1.25263 5.87534 -2.59695
6.96032 1.40746 -1.8121
1.98007 -7.04125 -8.50799
3.07264 -6.00903 5.20214
-2.47707 -2.80493 1.16202
5.88855 -6.29311 -0.491268
2.87324 6.0547 1.44382
-1.43806 -3.5161 9.527
8.01874 -3.52551 -5.37777
6.04776 -5.55834 -8.34771
-10.8994 1.06776 -11.7172
-2.35034 0.173343 8.65481
-1.49272 1.66509 4.69434
6.64528 4.2034 -1.51325
-2.78154 -9.36453 1.27739
1.45824 -5.90918 -8.69154
7.87261 -2.74918 -4.36908
-3.61165 -1.04622 13.3726
-3.01284 -8.19262 -4.17617
5.27059 0.467141 -1.33362
4.61955 -3.9062 4.25733
-2.26567 7.4427 1.11569
9.76255 -4.46292 -5.39963
-3.45736 0.905254 1.49526
-9.44627 1.0277 -10.2667
3.874 -3.48289 4.20716
3.99428 5.77046 -0.817207
-11.4114 2.37072 -11.0541
-3.46264 -0.439294 11.5137
-2.44184 -3.48607 12.3626
-9.27254 -2.15265 -12.439
-8.02544 2.59634 -8.00745
10.5427 -3.92315 -4.82284
-2.85295 1.12745 -2.65311
11.8583 2.87817 -2.93452
5.70944 -0.293085 -0.930134
-0.118243 -8.508 4.57663
6.91065 -4.77583 -7.84745
8.85434 -3.65489 -0.382364
13.3708 5.15424 -3.08026
-6.35811 0.704376 -7.34566
7.35929 -2.36028 1.7943
-4.91962 3.82884 -3.79417
-2.0966 1.3777 -3.49711
-4.24703 1.82701 0.802967
-0.0545926 1.31291 3.52493
4.94091 -0.390159 -3.50378
6.94611 -1.64616 -3.1642
-0.278114 -4.36091 -6.05908
1.11951 -0.0737354 -4.3517
-1.49644 -0.0422462 6.41788
-2.22539 -3.67903 0.556669
-2.83695 -0.802743 -4.54616
-2.54797 -7.47516 -4.66275
-3.01936 -4.35123 -0.977534
4.07662 -7.04698 -1.8441
-3.30555 0.236587 1.07848
0.289052 -5.67499 -7.06638
7.24614 -7.13004 5.66271
5.82947 1.00779 -1.56304
5.52216 -2.6839 3.1102
-3.10831 -8.42778 -3.21542
-2.39198 3.3636 6.0676
-7.04066 0.045176 -8.42665
8.76957 -3.7843 1.52834
-3.38677 2.49642 9.3155
-4.09639 1.90807 12.1379
7.10108 8.08122 -1.20246
4.42682 -4.50143 -7.84506
2.89376 1.61691 3.10947
9.90261 9.36525 -2.04815
0.576632 -3.11622 -4.95499
6.1666 -6.17022 -2.16834
6.49237 -5.93699 0.525433
-2.32467 -5.14079 1.3341
2.11026 -8.78533 2.14226
4.56276 2.23719 -0.516081
-1.55502 4.68148 0.465736
3.29684 -3.61508 -7.27023
1.05966 5.55646 3.25787
-0.899605 -3.42935 3.44631
-2.37939 0.830543 8.13153
-8.0953 1.81305 -8.54466
7.04763 2.20744 -1.7522
-4.21748 0.114664 14.4523
-1.74981 -3.29519 -3.69206
-3.02173 0.0232126 10.6463
9.81833 7.96779 -2.07679
6.49878 3.41509 -1.5601
-0.627426 -7.59053 -7.00566
-3.41259 -0.481883 12.2965
-8.48042 -2.89461 -11.9667
-3.03983 -6.39503 -2.28378
3.80199 2.86258 -1.62107
3.29053 2.46865 2.53728
4.45508 -7.80776 5.14545
-3.1332 2.81875 8.56319
1.33513 1.13941 -4.33359
4.86747 -7.04576 1.32749
5.87737 6.22736 -1.19525
3.34912 -0.445325 -4.58316
-0.912217 -5.01188 -6.05868
-0.908907 -2.65753 2.97072
-8.89731 -0.0308582 -10.2901
0.133043 -5.79048 4.10237
-3.12558 -7.14851 -2.51862
-7.54288 -0.145749 -9.0234
2.7271 -0.644142 2.81557
8.23922 -2.37256 -1.25313
4.25201 -5.30601 -8.601
5.18262 -3.43864 3.87177
9.931 4.03676 -2.33151
-2.09894 0.993295 2.74405
1.2152 -8.05685 -2.35486
-0.858259 5.17162 1.29355
-3.29135 -1.74564 13.1233
5.53194 1.90215 -1.46995
0.0743142 3.56735 -3.83296
-2.20534 3.2797 5.29198
8.43574 -4.7522 3.18324
0.140501 -3.05313 3.23208
9.2632 4.48173 -2.1473
-6.08019 -2.82112 -9.21769
0.877651 -5.84017 4.51833
3.82626 -3.10172 -6.7681
-2.59919 -4.35726 -1.77798
-3.02001 3.20644 7.03532
-1.4251 -2.7175 8.71706
-1.77741 -5.65845 2.14947
1.51306 4.89345 -2.85156
-0.276785 0.577046 3.77648
-2.63441 -2.90326 -1.36457
3.82222 -7.09354 -3.85712
-2.40811 -5.97681 1.26654
-7.87511 -3.19961 -11.3174
6.26574 -5.37425 -0.321257
-0.724881 -5.62618 -6.86764
-2.37758 -1.72171 -5.1929
-0.89496 -3.44434 2.62973
-5.23782 -1.82722 -7.52905
-3.06668 -8.2615 0.290864
-4.35334 2.82581 -0.167051
8.3953 -3.27405 -4.70594
7.39256 4.10288 -1.72705
-3.34281 0.948911 10.6714
-3.77551 1.75468 11.043
-2.45792 -9.00088 -5.64825
-4.2677 1.63907 13.5961
2.23811 1.31761 -4.14844
0.853495 4.91663 3.84344
2.75448 -6.72913 -8.67379
5.05477 -6.2059 -5.81003
6.18217 -1.24409 1.20493
4.71474 1.56281 -0.965151
-1.34854 6.25823 0.127905
10.5685 9.77946 -3.21431
2.97012 -1.22802 3.29805
-2.60444 0.782763 2.10174
-2.77419 -4.97568 -2.4335
-2.73502 -0.09701 -4.04415
3.19091 5.64115 -0.787279
-2.05807 -4.49049 11.7861
1.64078 -8.01312 1.25117
6.12381 -1.76563 1.78703
2.31773 2.66314 -3.52963
2.36299 5.77019 2.07023
12.4495 10.5342 -2.99896
-2.25266 2.14753 3.38616
6.60475 -3.28544 -6.30947
7.8225 -5.83104 4.26479
12.7319 5.59433 -2.91317
-2.45146 2.22441 -3.27105
10.8711 -4.19926 -3.52916
-4.73919 -0.58484 -6.3849
-7.87732 -1.29381 -9.95403
-2.96683 -7.52165 -1.30921
3.68476 -2.75188 3.82744
11.2573 8.514 -2.38668
-3.13571 -7.77459 -2.03761
-1.25682 -6.06849 2.93117
-3.31939 1.74385 -1.90335
-5.38362 2.71785 -5.23405
3.05087 -7.18 0.600205
15.6946 4.68437 -3.63917
-3.59195 -1.37376 -5.60161
2.88666 -4.9244 4.67208
-3.04997 -2.05255 -5.58697
-1.47832 7.20448 0.134854
7.04973 -1.86078 0.908774
-9.38349 -2.9031 -12.2025
-3.31058 -0.775433 0.899879
2.75776 -7.78558 -0.92059
-4.89038 3.43095 0.426814
-6.48035 -0.26358 -7.96251
0.320187 0.0133761 -4.21115
-2.18652 -8.0665 -5.61899
-1.90086 0.620522 -3.56024
-2.85211 -2.92367 12.8906
6.16977 -6.11598 -4.15579
9.06072 -4.26758 -5.06558
-2.6229 -1.18485 1.17851
5.84445 0.987256 -2.44388
4.48833 5.10671 -0.94666
9.02214 -3.95189 0.439309
3.78571 4.7322 -0.851342
-9.27624 2.74098 -8.6749
-9.69123 1.8618 -10.318
1.74279 -4.94602 -7.45663
1.0642 -7.70978 -0.631868
-4.58581 0.436132 15.5166
8.9913 7.94697 -1.87416
-3.95365 -1.0207 -6.33634
-2.96661 1.53762 2.02884
2.01437 -6.28702 -8.28809
-3.53166 2.19336 10.1007
-2.78258 -9.05455 -4.91999
6.06373 -0.966699 -2.83335
-7.3995 3.3847 -7.00085
3.20512 1.33889 -3.46742
-2.49149 -1.94432 0.959589
-4.81057 2.46679 1.06385
0.453091 0.442899 3.39396
-0.433843 -1.82889 -4.43791
2.27384 0.028617 3.07028
-4.65952 3.22611 1.24844
-3.20308 -9.5456 -3.94937
6.12403 -6.60724 -1.28532
-8.89909 -2.3415 -11.5431
-1.60129 -0.503751 7.04879
-0.483146 4.75016 1.8607
-1.19679 -2.41019 -4.11456
-0.342418 -9.41573 4.80553
-2.98609 -10.3953 1.79462
4.25423 -6.60786 5.5301
2.43151 6.94396 -0.426645
8.02066 5.74579 -1.80731
-3.80236 -1.85132 -6.36917
-0.648006 -4.31334 3.21478
-3.16971 2.0074 -2.75589
-1.54244 4.28767 3.5147
5.69431 -5.30562 0.480206
12.462 6.50456 -2.7812
9.3937 -4.33491 1.16463
-2.30244 -0.743792 -2.4463
-1.1776 -7.09585 -6.55707
5.12431 -4.14916 -7.67629
-2.33759 -1.50643 -4.41433
1.4622 -8.39863 -0.386854
-2.71095 -6.40672 -3.44357
-6.25388 3.61139 -5.67568
2.45952 -6.75544 5.36514
-1.29995 1.39196 -3.68532
14.816 6.90178 -3.63022
-6.77116 -2.75797 -9.61595
-2.06249 -9.79457 0.846085
-1.83215 1.48367 5.89722
2.84942 -7.59221 -3.12339
7.11196 -5.57207 4.47135
5.21727 -5.05795 -8.39458
-2.32206 -2.16146 10.8552
3.28431 3.16886 1.59449
-5.76056 0.614129 -6.74463
3.87845 -5.79571 5.1789
5.34584 -6.32299 -2.05005
-3.12047 -1.06369 0.194218
-2.22429 -7.9207 2.26932
-4.05186 1.71984 0.0215159
-1.33274 0.802811 3.52887
0.930821 -2.07677 3.59628
-0.0631823 -2.46246 -5.13156
-3.48013 -0.689031 -5.12262
-1.57232 -10.0206 3.2868
-1.88562 -5.9138 -5.03927
10.512 6.57636 -2.24859
-3.47398 -2.5469 -6.04412
1.47856 -3.6023 4.596
-3.19362 1.66589 9.59739
-5.54829 1.27785 -6.24204
-3.15767 -7.81889 -0.354507
-1.85859 0.664687 6.76768
-2.89932 2.84249 7.78613
-5.4928 -2.81635 -8.6386
6.22944 -0.830084 -3.66079
4.07721 -3.80225 -7.29309
4.65697 -8.16737 7.28863
2.2044 2.3727 3.26617
-4.05543 4.33046 -3.00981
4.50405 0.712541 0.341813
2.80792 -5.78064 -8.5807
-2.34463 -4.92725 13.0738
-2.06772 -0.976477 1.76319
-2.91057 -7.62626 -3.18662
-3.44857 0.431891 -4.50664
5.66337 -1.96711 2.5353
12.8881 4.4071 -3.01561
-3.50656 -0.0284885 0.229393
6.71965 -5.03797 -7.08058
-2.08226 5.73053 0.88982
-3.05233 2.72094 -3.11029
8.98937 5.83382 -1.99765
0.660594 -9.0434 3.93238
3.65943 2.11515 1.51615
-9.6239 -1.30329 -12.4011
-4.81865 -2.52005 -7.80817
-6.97828 3.15057 -6.358
6.56237 -5.90309 -5.01858
3.1876 6.4619 -0.539522
14.8464 4.2487 -3.63812
-2.45633 -2.86206 11.7918
5.35717 7.38236 -0.994544
14.6205 6.18892 -3.21822
-3.74582 1.63819 1.53459
-1.97959 -3.41909 1.37024
5.59408 -2.02205 -5.34057
-8.5441 -0.81063 -10.3731
2.58813 -0.702385 -4.54352
5.04485 -6.69482 5.52466
7.8439 -4.15515 2.97496
1.86295 -6.47885 -9.22217
1.09804 3.36003 -4.11212
4.57538 0.165365 0.978769
1.50394 -8.68393 4.82158
6.35647 -5.96073 -5.79403
9.44875 -3.72305 -6.62606
9.44344 -3.77698 -2.4698
-0.980825 -3.58918 8.33019
-0.0803142 0.749521 -3.96307
14.1639 7.47321 -3.0922
2.81274 -8.29681 5.57084
9.22149 9.22258 -2.82322
5.7085 7.69083 -2.40681
-4.09982 4.07608 -1.79965
-0.264661 -7.92056 -7.68841
-8.63998 1.51602 -9.4018
3.60286 3.94985 -1.58129
-2.26853 -4.75643 -3.66709
12.811 9.81117 -2.70128
-3.94536 -0.376256 13.6672
6.09025 7.16436 -1.22555
-2.00977 -0.544909 -3.41259
1.14515 -3.00154 4.18998
1.68627 4.65708 3.65697
2.86011 -7.67596 -4.07193
-1.62586 2.45959 3.86232
1.89828 3.20834 3.39347
6.26999 -0.713442 -2.09236
11.7971 7.17047 -2.58493
-8.27505 0.00912899 -9.66881
-10.6755 1.96976 -11.1103
-7.96314 3.32314 -7.61536
4.44211 1.54636 -0.0731233
4.82836 -3.58676 -7.08897
2.52073 -8.1933 1.77379
10.0019 -5.43926 2.75572
7.91043 -4.5631 -7.50058
-1.58529 -7.20474 2.63465
3.12415 -1.07488 -5.06023
-1.07186 -4.03576 8.99051
-2.6557 -0.401291 10.0668
13.0202 5.22156 -4.21148
4.71354 4.0864 -1.16704
-0.0013654 -2.72731 4.03756
-4.43059 0.768048 13.9163
-3.01325 -3.21115 13.7325
-6.29069 -2.13452 -8.78153
7.41747 4.91074 -1.58673
1.22421 4.02759 3.54244
3.73728 2.70347 0.932318
-5.21483 0.0275739 -6.5304
-4.84894 0.469463 -5.91597
-3.26463 3.95434 -3.02967
-3.43898 -9.43722 -3.19987
6.81965 6.49411 -1.37196
-1.97589 -2.81015 10.4111
5.25748 -0.153593 -2.57754
-3.77516 -0.0100361 12.8659
4.06971 3.3875 -1.0505
-1.44413 -1.22864 7.40257
2.40433 -3.77705 -7.09535
0.876967 -0.806265 -5.08391
3.72933 -0.740638 2.81191
5.97223 -6.58252 0.293678
3.47022 -8.65726 7.29852
-0.552223 -1.91306 2.8161
-4.13568 2.46312 1.59451
3.0481 -3.36369 4.20958
7.20916 5.79576 -1.5386
-9.01893 -3.67824 -12.3761
0.515166 -3.87442 -5.33903
-0.836005 -6.42955 -6.86134
-1.34881 5.4817 0.415104
2.02012 -5.18541 4.70119
-2.42918 1.73473 2.68813
11.8393 10.2088 -2.51966
-2.41913 -6.77307 1.47445
-4.43986 3.76712 -0.756471
0.921137 -7.19143 4.97689
11.3417 9.53988 -2.18018
0.110088 4.75369 2.62035
-0.342747 -2.89015 5.11336
2.44766 1.8968 -3.62729
-2.36195 -0.518683 9.25736
13.5507 6.03049 -3.09201
9.01204 -3.042 -2.38095
-0.286867 6.217 -3.49854
3.73305 -2.05262 -7.42967
-2.05215 5.04159 1.40736
7.75253 -2.32461 -3.43071
3.05922 3.4665 -2.12775
4.74605 -2.12187 -5.86107
-0.204858 -6.64662 -7.34147
8.89706 1.9934 -2.19461
8.73119 -2.94841 -1.58768
-9.8616 2.67588 -9.48049
-2.3724 -2.17631 -0.961782
-10.7341 2.67647 -10.5798
-0.436258 -2.78844 5.89098
-3.60862 3.25385 3.44889
6.08119 -4.07978 3.81703
8.60886 5.14636 -1.94216
-2.83877 -2.32339 12.3749
-6.22978 2.2106 -6.31352
-2.342 4.74414 -2.84024
4.29764 -6.55647 -4.7434
6.43241 -1.89819 -4.21065
5.09445 6.33744 -1.03196
-3.17624 -1.31175 12.4014
-2.4552 -3.34917 -2.04298
-3.05816 -9.06988 0.439409
2.89111 -4.13737 4.45737
1.70521 -1.05302 -4.81672
-3.31665 -9.13554 -0.661705
4.95358 -6.41804 -3.96685
9.21026 -3.29645 -3.17843
-1.34273 -5.49222 -5.55018
-0.0195766 -4.17847 3.82815
6.89428 -1.24685 -3.9325
2.57658 -1.92517 -5.85074
5.27169 -2.62748 -6.17863
-1.73774 -2.70739 9.59127
4.70952 2.78534 -1.08284
1.91083 6.22809 -1.72252
3.11328 4.54505 -1.42055
0.849638 -0.395766 3.19351
1.25259 -4.32676 4.33432
12.3442 7.79159 -2.65963
6.39531 -2.33498 -4.8743
5.46421 3.85902 -1.31092
7.72679 1.49151 -2.1607
2.26407 -5.92544 -9.75141
-3.76387 1.20421 -4.41175
6.87699 -2.76635 2.27871
3.55468 3.57151 0.886129
4.97835 0.565373 -0.548865
-3.2516 -9.81893 -0.0594046
-10.3902 0.435858 -12.0809
6.47987 0.679147 -2.05557
1.22093 -5.93469 -7.8966
-1.20616 0.834383 4.77866
-3.8861 0.031648 -5.14509
-1.15113 -8.03167 -7.58169
6.98506 7.32216 -1.43559
10.7928 -4.71067 -0.23039
-0.764964 1.88206 3.91625
7.62144 -3.50665 -6.35104
-3.35159 0.00764208 -0.540721
3.52676 4.16674 -0.322051
-4.57668 -1.46838 -6.69783
4.81257 -0.547836 2.16298
15.0668 5.51142 -3.45699
9.95082 -4.59519 -4.62233
1.90139 5.59993 3.41237
-1.63518 2.2495 -3.40939
-0.951821 -7.8395 3.90301
-4.24803 1.4006 12.807
2.88043 5.96096 0.332931
-3.7634 0.724303 0.223649
-6.84567 -1.14634 -8.81584
-6.80655 1.46105 -7.39154
-1.14631 -1.09404 2.64724
-4.72067 0.821445 14.7448
0.0458524 1.54507 -3.99672
-0.869553 2.11965 -3.68549
-2.69215 3.93827 3.59744
9.07399 -4.07572 -5.85281
12.2336 3.92416 -2.88552
5.7861 -3.18937 -6.54949
2.82909 5.36239 1.01959
1.81799 -2.28321 -5.89422
5.35416 0.0474449 0.406899
1.90134 -3.16887 -6.55892
-9.79549 -1.86827 -11.867
6.37354 -2.56999 -5.65296
-9.02696 -1.59429 -11.2777
4.26624 2.04944 -1.62215
6.75378 -1.22151 -2.45989
9.06696 -3.79218 -4.43935
-0.668182 -9.86163 4.12863
-2.76548 -1.38218 -0.580638
4.45604 -1.17041 2.58414
-2.74012 -1.93279 0.0684777
-1.48377 -1.76756 7.99107
9.16959 3.59315 -2.18093
9.42813 -3.35999 -1.67204
-10.0399 -0.305848 -11.052
0.914129 1.80568 -4.17397
5.01678 -6.36655 -3.067
3.51966 -4.26952 -7.75029
-1.52726 -4.7961 -4.90293
11.6518 3.73512 -4.08093
9.9952 7.17443 -2.08707
4.57235 -6.35524 1.05455
13.0869 7.65314 -2.89176
3.19001 0.545099 -3.61875
0.419244 -8.01387 -0.2401
2.47948 3.38313 -2.76244
-0.907202 0.703975 -3.79226
-1.07817 3.93042 4.03929
3.65276 1.78016 2.28132
-2.33644 4.12829 0.745856
8.56783 -2.82833 -3.10348
-3.62082 3.39957 2.65504
0.0421182 2.77738 -3.94716
-5.10013 3.50048 -4.49863
2.1473 -1.65641 3.70168
-1.35611 3.93893 -3.43831
7.19418 -6.33459 5.00404
1.09124 -4.67451 -7.10946
-2.81282 1.51671 8.33921
-8.86232 2.29997 -9.2153
10.0462 -3.89721 -4.08692
1.08416 3.2101 3.5819
7.73362 7.55029 -1.64463
4.92346 -2.68511 -7.12488
-1.34448 -3.56455 -4.37868
-2.04248 -5.15688 -4.38701
-1.63324 -4.49606 10.9573
-0.542265 -1.16419 3.23094
-3.96634 3.60627 -3.33299
7.74565 -2.58958 0.982094
3.01269 4.24189 1.40363
2.62178 4.17006 2.65208
-2.97608 -3.69025 14.4504
-1.23963 -2.57295 7.90809
3.00977 -7.2648 -2.42223
-2.7445 -2.84199 0.0538428
0.341776 -6.67597 4.78923
-3.55743 -1.71941 13.8787
3.28352 4.49524 0.711703
10.2922 3.31408 -2.44591
-0.761585 3.20243 -3.71725
2.58219 4.4111 -2.12707
-2.78512 -0.585589 -0.993659
-1.11849 -9.30678 3.7696
-2.58815 -5.73067 -2.54852
-8.45333 -1.67921 -10.7499
7.37282 -1.85763 0.111676
14.0815 4.35393 -3.41044
1.76677 0.379455 -4.4948
10.6936 4.49394 -2.48213
4.12272 2.20443 0.342267
5.28038 -5.50609 -7.54872
4.12252 -4.60328 -9.51661
-3.2261 -9.1448 -2.42042
-2.65511 -2.01909 11.6207
-10.1652 -0.384992 -12.1247
9.17187 -3.28394 -5.28185
4.05775 1.0908 1.59647
14.0326 8.90723 -3.16689
-9.64785 -1.01647 -11.5644
-1.886 -9.51009 2.70925
-2.62768 -3.72119 13.1215
4.35686 -1.5203 -5.34994
8.83215 8.8105 -1.76348
9.47754 -5.71543 3.41654
-1.89086 -4.15778 1.80625
1.76255 -0.81521 3.06899
-2.91746 0.686081 -3.84421
11.3703 6.46938 -2.61284
4.23835 0.24106 1.68587
3.4772 1.0526 2.91244
-0.110276 -7.31921 -8.2962
1.12754 -7.39447 -8.40651
-4.36027 -0.210838 -5.7828
-3.00434 -10.0675 -0.808736
5.22376 -7.53004 5.72197
-1.70859 3.09921 -3.47453
9.71683 -4.29022 0.167976
-0.908155 -6.13571 -6.12576
4.22879 -6.85068 -2.77148
-2.33485 4.01253 4.48888
-1.03124 -7.14738 3.50283
-0.546328 -0.648996 4.03688
0.808246 -8.08895 1.41137
-2.30155 2.98637 3.63534
9.12916 -5.15151 2.91237
-4.38769 1.59544 -4.81612
-3.11325 -11.1391 2.62762
-5.79316 -0.234939 -7.2695
7.64487 -4.86703 3.81673
7.32397 -3.56301 3.21856
0.210298 4.0977 3.98619
-3.17102 -2.48469 13.4736
-2.65472 0.054204 1.79078
-2.74517 0.883668 9.09312
2.20704 -7.44602 0.607005
-2.82862 -7.45174 0.620641
1.31608 -1.66113 -5.307
-0.14429 -5.08942 -6.47159
-0.911564 3.0837 3.95266
-3.19446 -8.26513 -1.07967
5.60855 -3.67655 -7.16645
8.63112 -3.30928 0.773475
10.49 -4.67012 0.511103
5.81057 -6.38188 5.30803
9.78614 -4.08593 -1.70885
-3.86253 3.36383 -2.07036
7.19185 -1.48063 -0.605921
-4.47481 0.97801 -5.38625
-8.76865 2.88202 -8.06856
-0.121337 -3.31931 -5.33815
2.53937 -7.56097 6.1205
0.393585 2.70749 3.60779
10.55 -4.49798 -2.11895
2.26244 -8.20175 4.62492
-2.69016 -5.53805 0.438345
4.38144 7.36552 -1.59038
8.61292 -4.29991 2.51727
-2.33696 -2.54859 -2.0588
13.1731 9.00508 -2.82763
-2.48533 0.308224 -3.12659
0.629571 -0.710736 -4.33268
-2.55783 -7.70235 1.54153
-1.79507 -1.40548 -3.47133
9.89351 2.29024 -2.44252
4.09439 0.176657 -3.64311
4.91113 -5.95942 5.1659
-1.76201 -1.73346 1.68485
-7.84825 1.01644 -8.6505
5.82537 -0.790638 0.554918
-1.31953 -0.343185 -3.78158
0.600112 -6.3767 -7.49426
-2.68676 -8.35099 1.10649
-3.68167 -2.41553 -7.23155
-1.92131 -1.56808 -2.68522
3.87894 0.765314 2.28912
5.78049 -6.14855 -3.22162
-4.9643 1.91345 -5.32535
-2.08472 -6.90071 -5.38452
11.4869 3.54284 -2.7283
-2.7124 -6.57929 0.738382
5.4411 2.99803 -1.30739
9.89559 4.93779 -2.27341
6.24416 2.63859 -1.5213
0.901307 1.22899 3.56514
-2.27279 -2.34615 -3.03951
-2.27477 -9.14708 1.91201
-3.08838 0.275024 -1.34427
8.30454 -5.34344 3.73625
0.0113232 4.80927 -3.80388
-2.51365 -3.37986 -0.492376
-1.4778 0.322669 -4.29668
-1.88354 7.88051 0.515579
0.60534 -8.64918 5.43937
5.58235 -7.28727 1.07676
-3.4446 -9.08105 -1.53331
-2.52194 2.59596 6.83611
-3.55528 -6.78653 -1.53354
7.53067 -1.93847 -4.17256
-3.48613 0.863072 -0.614579
7.11253 -1.34086 -1.42566
-0.379584 -6.76117 3.91972
0.118174 -0.284444 3.60151
-0.224677 -2.1201 4.76277
-2.08368 -8.61673 -6.22672
8.47721 2.04098 -2.96082
1.75529 4.16106 -3.07439
2.76081 0.762868 3.08015
6.9139 -4.2887 3.60215
1.00875 -7.7955 -1.5722
0.451883 1.91882 3.70275
4.19615 -8.29542 6.53392
-4.1165 -2.73797 -6.65626
-0.593227 -1.03611 4.72646
6.1934 -0.663952 -0.219544
1.74882 -7.70065 -3.1111
-2.60522 -4.23851 -0.155185
3.71132 -6.1196 -0.212242
3.60332 2.43958 -2.27615
3.85349 3.09637 -0.064773
9.43843 -4.66773 1.9864
2.26619 5.30488 2.7584
-1.77197 -2.5879 1.7593
-4.76449 2.48838 -4.80403
-6.67539 3.1659 -5.1752
-2.38294 3.53784 -3.38655
-5.48522 3.92141 -5.10422
3.92599 -6.46339 -8.11504
4.06145 0.671317 -2.80954
12.1443 9.39955 -2.52203
-3.90025 -1.61724 14.6256
10.7305 7.86648 -2.26781
8.51058 6.44367 -1.83984
-1.12281 -3.84039 -5.88502
-0.545542 -5.97678 3.66585
6.37847 -5.19501 0.921364
3.12248 -5.70217 -9.51347
-2.90318 -1.32643 11.3095
3.86066 6.75611 -0.907658
1.32064 2.01122 3.4316
8.86856 -4.49991 -6.73626
-2.56664 -0.038208 -2.16189
-2.75508 -5.1208 13.8689
2.11605 1.47413 3.27437
5.12189 5.55272 -1.0911
2.75241 3.18694 3.23725
2.67923 -2.83981 -6.51089
4.5547 -2.64198 3.6034
-0.49261 4.53476 4.19689
-2.78204 -5.40708 -0.701535
-5.5896 2.06086 -5.80925
-7.27684 -2.95922 -10.3584
-1.48621 -7.88093 3.03521
5.16529 -6.8111 0.572164
10.1685 -4.10096 -0.448671
-4.2805 3.21938 2.25502
1.38101 0.385345 3.38649
-4.5702 -0.589339 14.9722
-1.0753 -7.31572 -8.72339
2.67321 0.274287 -4.58492
3.27492 -1.29201 -6.89077
5.36811 4.67765 -1.20848
1.71865 -8.28414 -1.57235
-10.1812 0.483703 -11.3087
-4.07771 3.24303 -1.2162
7.54162 -1.87814 -2.17113
-3.35007 -10.0327 -1.51699
14.139 8.24961 -3.58681
-0.366994 -3.26855 6.56387
5.96801 -1.11822 -4.34923
-7.86159 2.90313 -6.58961
3.16303 5.25822 -0.021261
13.5329 3.78885 -3.21395
13.5887 8.28501 -2.93804
2.17131 -7.98134 -0.0386138
8.21242 -4.00482 -6.05414
3.67329 -4.30506 4.58784
7.95131 -3.69779 2.24069
4.5827 6.82986 -0.591933
-1.18041 -1.01189 6.41058
3.32426 -1.72963 -5.65362
-1.34111 -8.47385 -6.54702
-3.54254 2.59546 -2.26292
-1.79995 2.71265 4.67992
4.91015 -1.78815 2.80395
-2.93073 1.45148 -3.49526
-7.1939 0.848545 -8.08842
5.44844 -4.20183 4.27315
8.15942 -2.69257 0.319165
-6.00597 3.52395 -4.54653
1.88119 -2.70635 3.89677
4.66593 1.18365 -1.74712
-1.98611 -6.51295 2.15849
4.81395 -6.02204 -8.28468
9.47001 -3.90419 -0.820017
0.701749 -3.85045 3.94463
7.26755 3.27501 -1.75672
-2.02695 -8.69132 2.59229
-6.29431 -1.00524 -8.16187
-2.45298 -0.962742 -1.70244
2.59867 5.8494 -1.51074
-5.13693 -1.00848 -6.99945
5.27294 -0.479846 1.245
-3.99782 -0.841349 14.2991
-2.48252 -5.54582 -3.53787
-3.78876 1.20715 11.7306
-2.87631 -6.04304 -0.209604
9.24328 6.89222 -2.00209
2.81689 -2.61632 3.94712
3.37274 -6.83889 5.5514
6.24252 5.07609 -1.38424
2.98253 2.69611 -2.78066
-2.13076 -2.1091 10.0679
11.9369 4.90124 -2.81593
-1.75367 -7.49467 -6.08722
3.22524 -1.96855 3.41611
-2.96476 -6.47863 -0.895245
5.27603 -1.2491 1.9148
6.75646 -4.91145 4.11701
-2.268 1.22265 7.42878
-3.45053 2.15732 -3.59125
5.31274 -1.47474 -4.82653
1.10067 -7.94384 5.34339
-0.471804 0.0697555 -4.11272
6.02874 -4.75663 4.40691
-3.56802 -9.86726 -2.33692
-3.8832 2.92499 -3.76249
9.56892 -4.30855 -3.1189
4.14293 -0.173105 2.46047
7.84208 -3.09815 1.71922
-9.18532 -0.57121 -11.0665
-0.730951 -2.55637 6.59227
5.17378 -4.91036 4.64536
12.3613 8.65298 -2.6489
9.61245 8.81689 -1.33375
5.0145 -0.87623 -4.39265
-2.941 -6.86924 -0.0853714
-1.76748 4.59659 2.01885
9.6301 3.50278 -2.98447
3.49193 -5.16084 -8.35988
8.09001 3.38579 -1.87029
-1.46611 -8.74797 3.29093
1.81994 3.55402 -3.5671
-0.854992 0.267965 4.28384
1.70229 -5.90096 4.82459
-3.0685 -10.0058 0.871526
9.78848 6.16304 -2.14947
6.34769 -0.801703 -1.0494
2.33643 -4.41935 -7.58023
4.21578 -1.90841 3.23043
-2.0984 1.52072 6.65596
5.85039 -4.78422 -8.01352
0.0652994 -1.35203 -4.82307
0.327892 -4.90161 -7.21308
3.3017 1.98815 -2.88855
7.88331 -2.24154 -0.380638
-4.48473 4.43557 -4.57354
-2.1493 -1.80316 -1.79914
-1.10085 -1.94203 2.21035
10.4682 -3.78546 -2.62031
11.9331 5.90501 -2.70636
6.57954 -1.25033 0.353776
7.75782 6.69748 -1.66283
-1.5377 -4.20896 9.91554
2.36931 -1.31293 -5.34026
-1.75711 -2.04197 9.01143
-2.08805 -3.52317 11.3766
2.20909 5.2203 -2.03101
7.22733 -2.58926 -4.99816
-3.96459 2.48079 -1.07511
0.6655 -8.15044 0.569472
7.88296 -4.26218 -6.74447
10.5092 5.50426 -2.38289
10.9548 2.95877 -2.68571
-5.96705 2.78309 -5.84423
6.6286 -3.90235 -7.00468
-0.141529 3.41921 3.75225
13.1851 6.82617 -2.92473
-1.58469 1.66742 3.59924
-0.839444 -2.92412 7.29032
-10.0711 1.17923 -10.8476
-1.92642 6.63376 0.922968
0.807203 -2.75609 -5.87474
0.900821 5.07627 -3.42339
2.22521 -3.51308 4.20802
3.23547 0.0253766 2.98069
-1.81415 2.10007 5.28066
-3.58979 2.62637 2.36528
-2.8007 -7.12608 -3.80814
6.47938 -3.55756 3.38636
-9.50561 0.234596 -10.8209
9.2875 2.79471 -2.2463
3.44753 -2.45799 -6.25166
-2.55955 2.02451 7.5344
-8.28457 -2.65949 -10.6625
-0.150305 -0.800215 -4.11258
3.63341 -5.03266 4.91214
-3.17665 0.938238 -1.94431
7.98883 2.53643 -1.95801
-10.8804 2.21582 -11.8427
-0.923553 -4.46097 -5.27308
1.0386 -3.40834 -6.45913
11.3339 5.41809 -2.56945
-2.26751 2.58068 6.02143
-1.90058 -1.28424 8.7588
3.93294 1.58173 -2.4251
4.03316 -5.56126 -9.42408
2.64912 4.98606 1.78477
10.2707 -4.97156 1.21244
8.50747 7.33468 -1.80433
13.9424 6.71458 -3.13196
4.96132 0.433763 -2.07308
-0.822787 -2.84985 -4.72471
0.538758 -1.92294 -5.18579
-0.93644 -3.67052 -5.07987
8.58627 -3.20327 -3.79168
-1.52793 -6.42025 -5.65589
2.69024 -5.01795 -8.01614
0.672025 -6.74991 -8.28468
3.46494 -6.33471 -8.81094
-3.88899 0.73456 12.4614
-2.83318 -4.17726 13.7464
-3.51544 0.35852 11.7666
-3.05056 0.943652 9.90138
-2.71105 0.260528 9.60306
-2.29475 -1.18939 9.72393
-1.7271 -3.61961 10.465
-3.76273 1.75247 -0.771105
-0.903961 -1.01262 5.59012
-2.59217 -3.70575 -1.26255
-7.51329 1.93729 -7.80254
-1.52752 -3.28492 2.12999
-5.70666 -1.00696 -7.58672
-4.56073 -2.22897 -7.10917
-7.8045 -2.13901 -10.3181
2.0585 -4.24358 4.48637
3.91026 -7.80871 5.88835
1.84232 -8.02706 -3.95502
5.26536 -6.27531 -4.84919
4.41781 -5.02995 4.83706
6.3447 -2.91009 2.87222
8.19086 -2.34616 -2.05341
