ply
format ascii 1.0
element vertex 742
property float x
property float y
property float z
property float nx
property float ny
property float nz
property uchar diffuse_red
property uchar diffuse_green
property uchar diffuse_blue
end_header
-12.6353 1.32669 8.31371 -0.141112 0.47735 -0.867309 1 1 1
-12.413 1.44701 7.08388 -0.280137 -0.826548 -0.488203 165 165 165
-11.8956 1.66013 7.24184 -0.662725 -0.240648 -0.709143 188 188 188
-11.7122 1.68249 7.15474 -0.0951759 -0.464944 -0.880209 180 180 180
-11.4392 1.71774 7.15237 -0.125076 -0.4643 -0.876802 102 102 102
-11.9202 1.6929 7.23634 -0.391176 -0.400492 -0.828606 178 178 178
-11.4582 1.81674 7.10769 -0.482685 -0.428357 -0.763889 118 118 118
-11.4796 1.78268 7.13259 -0.282655 -0.439329 -0.852699 144 144 144
-11.6779 1.86945 7.04076 -0.074906 -0.456427 -0.886602 166 166 166
-11.7503 1.94297 7.02804 -0.195281 -0.312413 -0.929658 178 178 178
-11.4827 2.00446 7.02614 -0.200293 -0.213028 -0.956296 149 149 149
-11.6888 2.0512 6.98995 -0.608315 -0.131488 -0.782728 205 205 205
-11.7121 2.09086 6.98194 -0.363381 -0.206356 -0.9085 203 203 203
-11.6994 2.0957 6.98638 -0.342297 -0.211435 -0.915493 203 203 203
-11.5463 2.11726 7.05167 -0.600115 -0.170643 -0.7815 180 180 180
-11.5173 2.14145 7.01164 -0.753765 -0.180228 -0.631946 173 173 173
-11.4879 2.14414 7.01803 -0.798811 -0.219983 -0.559918 166 166 166
-11.4908 2.14035 7.01606 -0.834296 -0.223302 -0.504069 161 161 161
-11.5263 2.19915 7.01899 -0.670202 -0.255925 -0.696658 177 177 177
-11.499 2.18945 7.02123 -0.833337 -0.22479 -0.504995 166 166 166
-11.7111 2.26902 6.93517 -0.339694 -0.161312 -0.926599 193 193 193
-11.5292 2.35758 6.94867 -0.360435 -0.259489 -0.895964 169 169 169
-11.6596 2.42908 6.9454 -0.433426 -0.115291 -0.893784 189 189 189
-11.7293 2.7381 7.32971 -0.373902 -0.244603 -0.894632 172 172 172
-11.7481 2.96815 7.05657 -0.0878686 -0.42832 -0.899345 178 178 178
-11.7086 3.47916 6.6266 -0.806277 -0.0391167 -0.590243 182 182 182
-12.3266 -4.27335 6.42044 -0.279322 0.67857 -0.679354 107 107 107
-12.3479 -4.26785 6.44809 0.0298458 0.73946 -0.672538 100 100 100
-12.2161 -4.28334 6.42587 -0.305839 0.525242 -0.794093 119 119 119
-12.3286 -4.21308 6.44764 -0.707831 0.458082 -0.537714 80 80 80
-11.9561 -4.2778 6.46171 -0.32566 0.279251 -0.903308 122 122 122
-11.3014 -4.43033 6.46415 -0.0776333 0.466623 -0.881042 0 0 0
-11.2802 -4.39612 6.4713 -0.958682 -0.00715869 -0.284389 0 0 0
-12.3605 -4.14412 6.58387 -0.0357037 0.750042 -0.660426 98 98 98
-12.0222 -4.22381 6.56869 -0.13251 0.8768 -0.462237 78 78 78
-11.9294 -4.24185 6.48542 -0.540063 0.450995 -0.710589 81 81 81
-11.7626 -4.25467 6.49564 -0.190381 0.950496 -0.245587 95 95 95
-12.3671 -4.10365 6.60102 -0.398549 0.634847 -0.661913 92 92 92
-11.8261 -4.20962 6.52155 -0.349574 0.274351 -0.89584 78 78 78
-11.6092 -4.23017 6.58019 -0.0185746 0.603053 -0.797484 76 76 76
-12.2704 -4.05045 6.6055 -0.193562 0.94502 -0.263573 78 78 78
-12.2704 -4.05045 6.6055 -0.193562 0.94502 -0.263573 78 78 78
-10.9652 -4.29389 6.50886 -0.12284 0.956476 -0.264695 0 0 0
-12.493 -3.99122 6.72953 -0.0131403 0.711693 -0.702367 0 0 0
-12.1042 -4.04793 6.6892 -0.358384 0.685184 -0.6341 74 74 74
-12.4045 -3.95977 6.77465 0.0540029 0.713655 -0.698412 100 100 100
-11.8595 -4.05169 6.70856 -0.128811 0.877291 -0.462351 77 77 77
-11.3412 -4.17237 6.66253 0.00544134 0.726601 -0.687038 107 107 107
-11.0561 -4.21127 6.64526 -0.65293 0.453311 -0.606787 77 77 77
-14.6243 -3.68342 7.99357 -0.307309 -0.576336 -0.757231 0 0 0
-12.2038 -3.95245 6.80297 -0.199672 0.784251 -0.587436 77 77 77
-11.7472 -4.05328 6.73026 -0.192746 0.821278 -0.536983 77 77 77
-11.2949 -4.15951 6.68501 0.0678476 0.686631 -0.723834 79 79 79
-11.2974 -4.15826 6.68187 -0.0075877 0.679385 -0.733743 79 79 79
-12.3637 -3.88702 6.81365 -0.285238 0.430134 -0.856519 77 77 77
-12.3305 -3.90614 6.78916 0.0613748 0.750765 -0.657712 77 77 77
-11.3837 -4.0877 6.75326 -0.0995528 0.719593 -0.687223 107 107 107
-11.2 -4.09587 6.65841 -0.224096 0.887718 -0.402166 66 66 66
-10.2819 -4.30978 6.63171 -0.170556 0.88392 -0.435427 0 0 0
-10.3218 -4.29005 6.65074 -0.258968 0.873452 -0.412331 0 0 0
-14.5388 -3.62392 7.98711 0.188925 0.68845 -0.700246 0 0 0
-11.8206 -3.95221 6.81912 -0.377079 0.841753 -0.386348 77 77 77
-11.2975 -4.0527 6.79028 -0.00110029 0.783285 -0.621662 75 75 75
-10.6157 -4.18004 6.69273 -0.41249 0.223075 -0.883227 75 75 75
-14.5191 -3.57507 8.02002 -0.0674461 0.417237 -0.906292 0 0 0
-12.4499 -3.80014 6.93891 0.0733775 0.722479 -0.687489 102 102 102
-12.4072 -3.80982 6.91056 -0.378389 0.559637 -0.737312 86 86 86
-11.4254 -4.00127 6.85301 -0.130287 0.717707 -0.684048 97 97 97
-11.3372 -4.03536 6.81315 0.0610939 0.723259 -0.68787 81 81 81
-11.1167 -4.07779 6.79928 -0.481281 0.637918 -0.60119 70 70 70
-10.5709 -4.18112 6.70234 -0.346356 0.204198 -0.91561 75 75 75
-10.5273 -4.19398 6.72505 -0.352951 0.223402 -0.90858 76 76 76
-10.2467 -4.25064 6.71218 -0.0852746 0.412823 -0.906811 0 0 0
-12.2409 -3.79961 6.91381 -0.40124 0.799284 -0.447383 77 77 77
-11.8255 -3.88153 6.8703 0.0553002 0.639885 -0.766478 76 76 76
-10.8914 -4.05593 6.85738 -0.595207 0.795654 -0.112527 65 65 65
-12.2838 -3.78368 6.95573 -0.134723 0.680518 -0.720239 76 76 76
-11.9825 -3.81794 6.9481 -0.563769 0.808298 -0.16976 67 67 67
-11.7912 -3.86342 6.88402 0.089201 0.686963 -0.721197 73 73 73
-11.427 -3.94562 6.91448 -0.298817 0.680817 -0.668728 87 87 87
-11.3236 -3.92685 6.88313 -0.56108 0.539571 -0.627736 75 75 75
-10.9877 -4.0181 6.86354 -0.476572 0.75807 -0.445207 76 76 76
-10.9436 -4.00537 6.89331 -0.23966 0.839785 -0.48716 77 77 77
-12.3723 -3.70802 6.97422 0.141784 0.280484 -0.949329 77 77 77
-11.8286 -3.82903 6.92754 0.0828237 0.704999 -0.704356 74 74 74
-11.3869 -3.90617 6.91222 -0.309081 0.67444 -0.670522 90 90 90
-11.2325 -3.93675 6.8901 -0.352432 -0.0383247 -0.935052 75 75 75
-12.2835 -3.70242 7.00357 0.0126985 0.297732 -0.954565 76 76 76
-11.4629 -3.85699 7.00479 -0.427087 0.630922 -0.647714 78 78 78
-11.0544 -3.93857 6.96804 -0.26988 0.759468 -0.591923 74 74 74
-10.512 -4.03144 6.95446 0.0463472 0.633559 -0.772305 74 74 74
-14.1805 -3.47109 7.97133 -0.00257039 0.885682 -0.464285 0 0 0
-14.1805 -3.47109 7.97133 -0.00257039 0.885682 -0.464285 0 0 0
-14.1805 -3.47109 7.97133 -0.00257039 0.885682 -0.464285 0 0 0
-12.507 -3.62919 7.10992 -0.296816 0.678892 -0.671569 35 35 35
-12.5034 -3.62697 7.11265 -0.298864 0.668668 -0.680855 46 46 46
-12.1696 -3.67225 7.03119 -0.100405 0.163752 -0.981379 76 76 76
-12.0158 -3.72589 7.03753 0.028832 0.575378 -0.817379 77 77 77
-11.95 -3.72678 7.04361 -0.342611 0.243341 -0.907416 81 81 81
-11.4628 -3.82121 7.03969 -0.442626 0.618085 -0.649656 79 79 79
-10.9883 -3.91867 6.99524 -0.492426 0.672091 -0.553001 75 75 75
-12.014 -3.69168 7.07945 -0.40568 0.494468 -0.768716 71 71 71
-11.7808 -3.67862 7.15159 -0.555739 0.756727 -0.344265 70 70 70
-11.6482 -3.70282 7.14943 -0.0711909 0.669577 -0.739323 74 74 74
-11.4272 -3.75231 7.07515 -0.473954 0.563865 -0.676332 96 96 96
-13.9779 -3.37316 7.97761 0.056152 0.805317 -0.59018 0 0 0
-12.4313 -3.51959 7.19977 -0.30784 0.564162 -0.76613 75 75 75
-11.606 -3.68053 7.15862 -0.0404717 0.737234 -0.674424 74 74 74
-11.113 -3.77391 7.12778 -0.268012 0.751247 -0.603156 74 74 74
-14.2335 -3.32824 8.15069 -0.121748 0.888206 -0.443021 43 43 43
-14.0954 -3.32603 8.05517 0.107231 0.306867 -0.945692 109 109 109
-13.9993 -3.35297 8.05163 0.0794962 -0.0224349 -0.996583 1 1 1
-12.4289 -3.48645 7.24634 0.00315389 0.532704 -0.846296 98 98 98
-11.1332 -3.70229 7.1663 -0.363095 0.0453377 -0.930648 80 80 80
-10.947 -3.75743 7.18468 -0.0196703 0.849853 -0.526652 75 75 75
-13.8085 -3.32619 7.98403 -0.0341368 0.458348 -0.888117 0 0 0
-11.8261 -3.57237 7.23914 0.0836191 0.646944 -0.757938 74 74 74
-11.1507 -3.65613 7.16111 -0.278681 -0.168145 -0.94555 74 74 74
-10.8759 -3.74198 7.22097 -0.358817 0.352687 -0.864212 82 82 82
-10.68 -3.76495 7.19118 -0.127809 0.836716 -0.532513 73 73 73
-10.6229 -3.77575 7.16238 -0.0998533 0.882648 -0.459306 73 73 73
-14.0131 -3.26994 8.05359 0.0648074 0.0646012 -0.995804 69 69 69
-14.7276 -3.23102 8.89544 -0.195111 0.556724 -0.807459 38 38 38
-13.8938 -3.25462 8.04815 0.0872628 0.193961 -0.97712 101 101 101
-12.5022 -3.36627 7.39759 -0.0473521 0.736304 -0.674992 94 94 94
-12.2253 -3.43169 7.30445 -0.33895 0.291807 -0.894406 75 75 75
-12.1348 -3.44852 7.33577 -0.182664 0.789966 -0.58531 74 74 74
-11.9443 -3.45236 7.32441 -0.597231 -0.266751 -0.756412 78 78 78
-11.78 -3.48222 7.37367 -0.358896 0.186243 -0.914607 96 96 96
-10.9611 -3.64096 7.28674 -0.043419 0.513864 -0.856772 58 58 58
-10.7607 -3.67055 7.30953 -0.39753 0.670402 -0.626524 72 72 72
-10.6846 -3.66954 7.25622 -0.404203 0.120264 -0.906729 73 73 73
-13.9162 -3.18143 8.03965 0.0827057 -0.196487 -0.977012 41 41 41
-12.0177 -3.40434 7.31423 -0.45329 -0.171793 -0.874652 74 74 74
-11.7064 -3.48615 7.3546 -0.443332 0.512426 -0.735443 80 80 80
-10.7191 -3.64094 7.32278 -0.608539 0.715451 -0.343236 72 72 72
-10.318 -3.69747 7.26015 -0.412822 0.526222 -0.743417 0 0 0
-14.7996 -3.15193 9.02967 -0.327016 0.78417 -0.527388 40 40 40
-13.8196 -3.18578 8.0895 0.0445208 0.720339 -0.692192 48 48 48
-11.7089 -3.42726 7.40261 -0.367894 0.244373 -0.897182 70 70 70
-11.292 -3.50193 7.40943 -0.188383 0.826255 -0.530862 74 74 74
-10.8523 -3.57666 7.35865 -0.378874 0.471282 -0.79646 71 71 71
-10.347 -3.64482 7.29359 -0.405455 0.565287 -0.718372 0 0 0
-13.4355 -3.184 7.98624 -0.0997103 0.386458 -0.916901 0 0 0
-12.4953 -3.25644 7.46669 -0.465741 0.427858 -0.774611 75 75 75
-12.3302 -3.27243 7.49118 -0.0660109 0.823766 -0.563075 74 74 74
-12.3848 -3.29047 7.46054 -0.0357837 0.861693 -0.506167 74 74 74
-12.0024 -3.33197 7.43279 0.146422 0.417705 -0.896707 69 69 69
-11.9565 -3.35705 7.4263 0.13059 0.528124 -0.839066 69 69 69
-11.7026 -3.41 7.41951 -0.0751675 0.809546 -0.582224 69 69 69
-11.4937 -3.44588 7.41603 -0.305067 0.700831 -0.644802 89 89 89
-10.8613 -3.5142 7.44495 -0.104589 0.898142 -0.427086 71 71 71
-10.5967 -3.58769 7.40949 -0.186099 0.924902 -0.331549 72 72 72
-15.0695 -3.08954 9.4757 -0.652496 0.559659 -0.510912 0 0 0
-14.7784 -3.07472 9.04764 0.189717 0.701844 -0.686602 38 38 38
-12.1148 -3.27978 7.51126 -0.438605 0.804781 -0.399941 73 73 73
-11.4525 -3.38867 7.46325 -0.100138 0.834926 -0.541176 73 73 73
-10.7331 -3.5306 7.49054 -0.149559 0.540079 -0.828219 70 70 70
-10.3401 -3.54449 7.37037 -0.530267 0.273302 -0.802573 0 0 0
-11.6171 -3.33046 7.57821 -0.34375 0.641354 -0.685931 65 65 65
-11.5627 -3.33386 7.5478 -0.259678 0.449503 -0.854701 75 75 75
-11.2728 -3.3808 7.51079 -0.144289 0.755982 -0.638492 64 64 64
-10.9441 -3.42132 7.52295 -0.423264 0.0401662 -0.905115 71 71 71
-12.0261 -3.23621 7.60839 -0.392628 0.686087 -0.612477 85 85 85
-12.4493 -3.10643 7.65743 -0.113155 0.683464 -0.72116 84 84 84
-12.2938 -3.13027 7.6531 0.120352 0.640547 -0.758429 99 99 99
-12.1562 -3.17226 7.63323 -0.299664 0.573882 -0.762142 76 76 76
-12.0244 -3.19698 7.65517 -0.0623276 0.483254 -0.873259 74 74 74
-12.5891 -3.06914 7.69584 -0.376162 0.632523 -0.677065 90 90 90
-12.2155 -3.11569 7.67249 -0.0403418 0.528766 -0.847808 112 112 112
-11.7765 -3.18206 7.72943 -0.324823 0.56102 -0.761411 73 73 73
-11.6963 -3.21663 7.66481 -0.351287 0.699006 -0.622887 89 89 89
-11.7011 -3.21689 7.66623 -0.410465 0.577571 -0.705642 92 92 92
-11.6589 -3.20081 7.6883 -0.335944 0.871642 -0.356906 78 78 78
-11.3216 -3.26003 7.63789 -0.0926452 0.884803 -0.456663 72 72 72
-11.2514 -3.27987 7.63966 -0.151318 0.847661 -0.508502 72 72 72
-11.1474 -3.28071 7.66115 -0.31328 0.810771 -0.494475 72 72 72
-12.2144 -3.07525 7.70274 0.00922546 0.724132 -0.689599 102 102 102
-12.158 -3.08992 7.68788 -0.0366402 0.630103 -0.775647 97 97 97
-12.1124 -3.1108 7.67151 0.0417877 0.667582 -0.743362 140 140 140
-11.8715 -3.13521 7.73017 -0.304807 0.596631 -0.742377 99 99 99
-11.9006 -3.11276 7.73281 -0.277471 0.65215 -0.705485 100 100 100
-13.2751 -2.93497 8.15237 -0.122958 0.865378 -0.4858 64 64 64
-12.5615 -2.98785 7.76688 -0.46795 0.627588 -0.622219 78 78 78
-12.1638 -3.05725 7.72356 0.0323176 0.761221 -0.647687 72 72 72
-12.1123 -3.07157 7.707 -0.025812 0.732813 -0.679941 129 129 129
-12.0642 -3.05099 7.72424 -0.0320614 0.728168 -0.684648 65 65 65
-11.7866 -3.11824 7.73087 -0.107634 0.857412 -0.503249 101 101 101
-11.7216 -3.13591 7.75928 -0.389824 0.661806 -0.640352 100 100 100
-11.2796 -3.20311 7.75037 -0.234365 0.76273 -0.602758 85 85 85
-14.4014 -2.89581 9.37633 -0.188955 0.722898 -0.664616 44 44 44
-12.9634 -2.9246 8.05815 0.0241532 0.0589735 -0.997967 0 0 0
-12.5632 -2.94837 7.79731 -0.542693 0.549343 -0.635379 74 74 74
-12.5118 -2.96507 7.79545 0.0808188 0.527932 -0.845432 72 72 72
-12.2859 -3.00491 7.78571 -0.065598 0.707619 -0.703543 73 73 73
-12.2151 -2.9984 7.78425 0.0337885 0.791816 -0.609825 85 85 85
-11.825 -3.07971 7.78905 -0.34751 0.845561 -0.405295 71 71 71
-10.5491 -3.27471 7.8025 -0.622207 0.472525 -0.624162 71 71 71
-12.3271 -2.9542 7.86834 -0.251921 0.692958 -0.675533 72 72 72
-12.3275 -2.95445 7.86566 -0.224921 0.702659 -0.675042 72 72 72
-12.1688 -2.97008 7.80491 -0.311098 0.613656 -0.725703 67 67 67
-11.4753 -3.09203 7.78247 -0.334913 0.886386 -0.319614 95 95 95
-11.1813 -3.11305 7.83396 -0.299216 0.673417 -0.676003 86 86 86
-10.9274 -3.17387 7.7909 -0.350611 0.599776 -0.719263 75 75 75
-10.9839 -3.10544 7.85393 -0.355979 0.436959 -0.826042 144 144 144
-10.8118 -3.15139 7.86102 0.0840069 0.551459 -0.829962 73 73 73
-8.49955 -3.58691 9.01263 -0.0875452 0.330909 -0.939593 0 0 0
-13.0283 -2.79561 8.32329 -0.307262 0.606587 -0.733241 45 45 45
-12.9588 -2.77733 8.18337 -0.139611 0.908022 -0.394975 40 40 40
-12.8008 -2.78301 8.09864 -0.0429908 0.8138 -0.579553 0 0 0
-11.7258 -2.9396 7.96992 -0.295339 0.683527 -0.667507 71 71 71
-11.4282 -2.94155 7.9518 -0.0503726 0.715677 -0.696612 70 70 70
-10.8245 -3.05584 7.90829 -0.333581 0.642477 -0.689889 72 72 72
-8.47269 -3.54379 9.01853 -0.15147 0.288215 -0.94551 0 0 0
-12.8368 -2.74718 8.23268 -0.200166 0.930432 -0.30697 4 4 4
-11.831 -2.87408 8.04866 -0.405595 0.838597 -0.363658 107 107 107
-11.6842 -2.88873 8.05385 -0.253404 0.757755 -0.601326 89 89 89
-10.5588 -3.05711 8.00149 -0.236889 0.703067 -0.670508 83 83 83
-10.5111 -3.03824 8.02042 0.0277926 0.715101 -0.698469 6 6 6
-8.45581 -3.4909 9.00592 -0.592327 0.272117 -0.758354 0 0 0
-13.2016 -2.71303 8.46536 -0.122704 0.735677 -0.666125 68 68 68
-12.6253 -2.76567 8.29783 -0.342966 0.362257 -0.866686 2 2 2
-11.353 -2.89962 8.01112 -0.251248 0.854165 -0.455277 71 71 71
-8.44858 -3.40463 9.055 -0.665017 0.133707 -0.734762 0 0 0
-13.7294 -2.65042 9.12777 0.0433031 0.849302 -0.526128 39 39 39
-13.7305 -2.64623 9.13192 -0.0640085 0.910553 -0.408406 39 39 39
-13.1075 -2.6466 8.48983 0.217369 0.108885 -0.969997 96 96 96
-12.7597 -2.69661 8.39308 -0.269684 0.591957 -0.759512 140 140 140
-11.2516 -2.8701 8.14314 0.0511012 0.605152 -0.794468 94 94 94
-11.2726 -2.88222 8.09813 -0.0883691 0.873831 -0.478133 72 72 72
-8.47947 -3.36816 9.07919 -0.681637 0.143737 -0.717433 0 0 0
-8.45338 -3.38706 9.09514 -0.394598 0.574963 -0.716736 0 0 0
-14.3684 -2.62321 9.79235 -0.0323366 0.861169 -0.507289 60 60 60
-11.8254 -2.72088 8.10046 -0.201277 -0.215239 -0.955594 128 128 128
-11.7983 -2.67699 8.08831 -0.365045 -0.245309 -0.89809 126 126 126
-11.7742 -2.71829 8.08445 -0.0475284 -0.308903 -0.949905 129 129 129
-8.53519 -3.26131 9.23035 -0.883901 0.360566 -0.297843 0 0 0
-14.5532 -2.51763 9.89345 -0.572822 -0.156494 -0.804602 0 0 0
-8.55225 -3.24644 9.37886 -0.717871 0.423572 -0.552493 0 0 0
-8.526 -3.22274 9.2927 -0.775941 0.435733 -0.456127 0 0 0
-14.465 -2.48646 9.94736 0.249706 0.287553 -0.924641 0 0 0
-11.931 -2.55562 8.03076 -0.264968 -0.311395 -0.912592 133 133 133
-11.7477 -2.55038 8.04345 0.0249108 -0.319856 -0.947139 118 118 118
-11.5853 -2.58746 8.03683 -0.564902 -0.530286 -0.632204 114 114 114
-11.8426 -2.50398 8.0398 -0.314435 -0.318488 -0.894257 128 128 128
-14.0416 -2.4132 9.95774 -0.188623 0.455892 -0.869818 1 1 1
-13.9874 -2.41355 9.94769 -0.162059 0.478786 -0.862845 9 9 9
-12.824 -2.43062 8.82834 -0.673917 -0.282955 -0.682475 73 73 73
-11.8717 -2.4449 8.02234 -0.446668 -0.224836 -0.865989 132 132 132
-11.5841 -2.49803 8.00697 -0.258185 -0.283375 -0.923601 134 134 134
-13.7879 -2.37248 9.93386 -0.167595 0.325605 -0.930534 40 40 40
-13.3694 -2.30199 9.52047 -0.285075 0.716616 -0.636548 64 64 64
-11.9104 -2.28356 7.9297 -0.356912 0.0397963 -0.93329 136 136 136
-11.8553 -2.29058 7.96779 -0.431007 0.323049 -0.842539 138 138 138
-13.2172 -2.2907 9.47637 0.0530949 0.72664 -0.684964 137 137 137
-11.5627 -2.29624 7.93988 -0.0637986 -0.231139 -0.970827 123 123 123
-13.2492 -2.23 9.59894 -0.166108 0.918469 -0.35892 51 51 51
-12.7152 -2.20428 8.52836 -0.724112 -0.247309 -0.643816 95 95 95
-12.7152 -2.20428 8.52836 -0.724112 -0.247309 -0.643816 95 95 95
-12.7152 -2.20428 8.52836 -0.724112 -0.247309 -0.643816 95 95 95
-11.8026 -2.20895 7.94041 -0.238159 -0.242099 -0.940568 143 143 143
-11.8599 -2.20232 7.91119 -0.230275 -0.354405 -0.906295 148 148 148
-11.7513 -2.21127 7.94214 -0.266859 -0.0679287 -0.961339 137 137 137
-11.6819 -2.21329 7.92485 -0.287412 -0.289504 -0.913007 141 141 141
-11.5908 -2.25248 7.92544 -0.02881 -0.345141 -0.938108 157 157 157
-12.8058 -2.17742 8.75748 -0.028071 -0.295503 -0.954929 83 83 83
-12.8014 -2.14526 8.71118 -0.0506433 -0.345912 -0.936899 85 85 85
-12.7768 -2.1581 8.62792 -0.0579812 -0.386349 -0.920528 73 73 73
-12.713 -2.11883 8.45459 -0.746193 -0.451755 -0.488993 108 108 108
-13.4733 -2.15448 9.96818 0.125026 0.523978 -0.842506 0 0 0
-13.065 -2.1734 9.71169 -0.0356681 0.79777 -0.601906 0 0 0
-11.6693 -2.14512 7.93168 -0.64737 -0.332018 -0.686058 122 122 122
-13.0665 -2.12869 9.78333 -0.325922 0.849953 -0.41395 0 0 0
-13.0012 -2.15139 9.74893 0.0279543 0.821848 -0.569021 0 0 0
-11.7753 -2.06775 7.9036 -0.309371 -0.32555 -0.89348 127 127 127
-11.6796 -2.06708 7.86771 -0.122992 -0.334369 -0.934382 122 122 122
-11.4867 -2.09508 7.86987 0.00850214 -0.262693 -0.964842 106 106 106
-11.546 -2.09217 7.8625 -0.0901559 -0.341764 -0.935452 115 115 115
-13.1146 -2.10773 9.90913 -0.0994806 0.89707 -0.430545 0 0 0
-11.8389 -2.04644 7.87836 -0.409889 -0.237298 -0.880727 131 131 131
-11.8101 -1.95992 7.82241 -0.112111 -0.311179 -0.943715 128 128 128
-11.4137 -2.00105 7.82713 -0.0833885 -0.187018 -0.978811 96 96 96
-11.4363 -2.03736 7.82653 -0.211858 -0.225118 -0.951019 97 97 97
-11.7216 -1.92843 7.84135 -0.131466 -0.253963 -0.958238 121 121 121
-11.479 -1.95761 7.80572 -0.0884796 -0.258914 -0.961839 104 104 104
-11.4325 -1.95569 7.78712 -0.311112 -0.161628 -0.936529 97 97 97
-11.841 -1.86432 7.81616 -0.51953 -0.152449 -0.840742 132 132 132
-11.8118 -1.86877 7.83821 -0.632136 -0.0887506 -0.769758 131 131 131
-11.7508 -1.88542 7.82518 -0.363552 -0.15049 -0.919338 124 124 124
-11.8804 -1.81399 7.75346 -0.209784 -0.268701 -0.940101 134 134 134
-11.8002 -1.86323 7.7975 -0.187222 -0.239302 -0.952724 127 127 127
-11.692 -1.83353 7.80222 -0.245051 -0.286133 -0.926325 118 118 118
-11.3891 -1.87583 7.79041 -0.00733097 -0.20326 -0.979097 94 94 94
-11.9199 -1.76808 7.80271 -0.64369 -0.130908 -0.754007 140 140 140
-11.6397 -1.78665 7.77646 -0.240845 -0.305604 -0.921195 121 121 121
-11.9431 -1.72787 7.8027 -0.110132 -0.146278 -0.983094 142 142 142
-11.7599 -1.73955 7.74323 -0.698909 -0.417873 -0.580438 124 124 124
-11.7069 -1.73961 7.74137 -0.0401787 -0.384453 -0.92227 132 132 132
-11.8684 -1.67074 7.7013 -0.405986 -0.486382 -0.773698 147 147 147
-11.8798 -1.6788 7.70936 -0.560663 -0.559013 -0.610869 137 137 137
-11.4735 -1.68484 7.71434 -0.331063 -0.17107 -0.927972 109 109 109
-12.758 -1.59789 8.50688 -0.776398 -0.127158 -0.617282 90 90 90
-11.1436 -1.67716 7.82854 -0.394547 0.244716 -0.88569 65 65 65
-11.9261 -1.5567 7.75758 -0.403004 0.0922629 -0.910536 145 145 145
-11.6213 -1.52864 7.66542 -0.0665535 -0.339627 -0.938203 127 127 127
-11.5587 -1.51716 7.6639 -0.0546236 -0.388526 -0.919817 154 154 154
-12.4883 -1.45495 7.89794 -0.713807 -0.318444 -0.623758 127 127 127
-11.9075 -1.43988 7.78687 -0.665034 -0.227696 -0.711255 147 147 147
-11.7338 -1.36451 7.63918 -0.76301 -0.109574 -0.637031 126 126 126
-11.7379 -1.2847 7.58393 -0.10432 -0.303624 -0.947064 126 126 126
-11.4559 -1.285 7.56608 -0.110947 -0.296477 -0.948574 107 107 107
-11.5088 -1.29032 7.55946 -0.361789 -0.295127 -0.884313 113 113 113
-12.745 -1.21697 8.19521 -0.592155 -0.15343 -0.791083 91 91 91
-11.7095 -1.24584 7.57387 -0.0187505 -0.296256 -0.954925 124 124 124
-11.5331 -1.24307 7.54928 -0.576833 -0.257308 -0.775278 133 133 133
-11.4438 -1.24101 7.51124 -0.155909 -0.267249 -0.950931 103 103 103
-11.4541 -1.19799 7.52851 -0.100234 -0.267189 -0.958417 108 108 108
-12.7469 -1.13561 8.17918 -0.350535 -0.234488 -0.90672 75 75 75
-11.6675 -1.14433 7.57258 -0.451758 -0.409479 -0.792617 136 136 136
-12.7502 -1.09998 8.15425 -0.224299 -0.182003 -0.957374 84 84 84
-11.4557 -1.1189 7.51 0.0107643 -0.124427 -0.99217 109 109 109
-12.7309 -1.05877 8.12781 -0.267823 -0.276269 -0.923009 77 77 77
-12.4848 -1.03571 7.75017 -0.728626 -0.351395 -0.587899 141 141 141
-12.7416 -1.01888 8.11588 -0.527816 -0.281881 -0.80122 75 75 75
-12.7143 -1.00871 8.09064 -0.684072 -0.274538 -0.675777 81 81 81
-12.673 -1.02266 8.05678 -0.575193 -0.311982 -0.756188 88 88 88
-12.692 -0.996142 8.03942 -0.664474 -0.360523 -0.654597 85 85 85
-11.5526 -1.00663 7.47287 -0.0332926 -0.330286 -0.943294 157 157 157
-11.4595 -1.0061 7.45296 0.0383085 -0.250141 -0.967451 109 109 109
-12.6866 -0.973093 8.0918 -0.789226 -0.269323 -0.551894 108 108 108
-12.7495 -0.95168 8.01987 -0.764179 -0.190851 -0.616122 100 100 100
-11.811 -0.971165 7.5056 -0.653051 -0.10225 -0.750379 138 138 138
-11.5289 -0.966882 7.45826 -0.055989 -0.332251 -0.941528 145 145 145
-11.5358 -0.91999 7.44091 -0.164004 -0.328343 -0.930212 155 155 155
-11.4384 -0.918287 7.4356 -0.108491 -0.316218 -0.942463 107 107 107
-11.7805 -0.8549 7.48595 -0.703339 -0.142995 -0.696323 137 137 137
-11.644 -0.812343 7.48182 -0.434779 -0.190205 -0.880221 126 126 126
-11.3982 -0.822067 7.40871 -0.111802 -0.196487 -0.974112 104 104 104
-11.1763 -0.828439 7.52562 0.00322591 -0.271646 -0.962392 77 77 77
-11.5175 -0.808 7.40347 -0.824444 -0.155795 -0.544077 123 123 123
-11.4692 -0.697509 7.35305 -0.0628207 -0.336384 -0.939627 113 113 113
-11.4198 -0.697955 7.35681 -0.0635894 -0.338424 -0.938843 108 108 108
-11.2058 -0.706706 7.42285 -0.0136874 -0.319783 -0.947392 81 81 81
-10.7292 -0.720506 7.73871 -0.832531 -0.142371 -0.535371 7 7 7
-11.645 -0.642953 7.35789 -0.0605325 -0.313178 -0.947763 124 124 124
-11.4434 -0.659021 7.35033 -0.0873888 -0.252715 -0.963586 111 111 111
-11.4176 -0.618135 7.27561 0.0584545 -0.128476 -0.989988 104 104 104
-12.7417 -0.520694 8.20713 0.118893 -0.324578 -0.938357 67 67 67
-10.7392 -0.521434 7.60659 -0.853453 0.00781114 -0.521112 9 9 9
-12.7292 -0.482373 8.26442 0.00804683 -0.356251 -0.934356 91 91 91
-11.9428 -0.464138 7.3023 -0.143095 -0.274073 -0.951004 175 175 175
-11.351 -0.464324 7.30257 -0.189826 -0.152584 -0.969889 126 126 126
-12.6881 -0.415975 8.14436 0.117328 -0.358385 -0.926172 77 77 77
-12.6384 -0.415831 8.14592 0.0106502 -0.318696 -0.947797 93 93 93
-11.7632 -0.400945 7.28603 -0.214985 -0.159223 -0.963551 136 136 136
-10.6856 -0.445374 7.54826 -0.833971 -0.118691 -0.538891 15 15 15
-12.0855 -0.382679 7.28737 -0.143788 -0.509669 -0.848271 147 147 147
-12.2791 -0.333305 7.36849 -0.353313 -0.30966 -0.882769 167 167 167
-12.3021 -0.295323 7.36599 -0.086856 -0.362121 -0.928076 145 145 145
-12.6901 -0.257851 7.77787 -0.0591187 0.165535 -0.98443 114 114 114
-11.8012 -0.0993396 7.31298 -0.42569 -0.170397 -0.88868 151 151 151
-11.7537 -0.0843902 7.28093 -0.527913 -0.267036 -0.806226 145 145 145
-11.7219 -0.0508771 7.13886 -0.589103 -0.603648 -0.537184 134 134 134
-12.5094 0.0211386 8.00616 -0.714237 -0.271032 -0.645296 121 121 121
-12.5653 0.0360827 7.96691 -0.739184 -0.176953 -0.649843 113 113 113
-11.4488 0.101525 7.16816 -0.411836 -0.529222 -0.741832 177 177 177
-11.0814 0.139392 7.2237 -0.558649 -0.148126 -0.816069 93 93 93
-12.4101 0.147002 7.37299 -0.343729 0.0580585 -0.937272 152 152 152
-11.7253 0.139835 7.10557 0.0637883 -0.144517 -0.987444 203 203 203
-11.298 0.176583 7.17054 0.0239203 -0.28486 -0.958271 184 184 184
-12.623 0.17002 7.51761 -0.710694 -0.302567 -0.635112 94 94 94
-12.5816 0.176877 7.48061 -0.521953 0.263338 -0.811306 115 115 115
-12.5475 0.194769 7.44309 -0.716522 0.169229 -0.676726 135 135 135
-12.5245 0.185933 7.43028 -0.593688 0.0924521 -0.799367 134 134 134
-12.3479 0.200544 7.32446 -0.0624812 0.229323 -0.971343 179 179 179
-11.3193 0.213865 7.15456 -0.0116708 -0.314439 -0.949206 202 202 202
-11.089 0.215216 7.20519 -0.345668 -0.252565 -0.903728 141 141 141
-12.5694 0.226605 7.48344 -0.329147 -0.173599 -0.928184 160 160 160
-12.5247 0.233585 7.45927 -0.588891 -0.169944 -0.790143 193 193 193
-12.479 0.233526 7.43401 -0.465024 -0.119 -0.877264 186 186 186
-11.3414 0.251066 7.14496 0.00638862 -0.147498 -0.989042 214 214 214
-11.0654 0.252203 7.18914 -0.346173 -0.406855 -0.84536 106 106 106
-11.0446 0.290116 7.16741 -0.22675 -0.405892 -0.885346 96 96 96
-11.8656 0.343531 7.02104 -0.614677 -0.0379188 -0.787867 140 140 140
-12.2865 0.353382 7.24896 -0.530418 -0.44697 -0.720329 189 189 189
-12.2556 0.351626 7.23313 -0.603428 -0.386707 -0.697375 188 188 188
-12.2313 0.386195 7.20711 -0.679788 -0.244928 -0.691302 199 199 199
-11.7318 0.398913 7.01828 0.0240096 -0.349672 -0.936564 150 150 150
-11.6879 0.398732 7.02314 0.0104405 -0.284282 -0.958684 172 172 172
-12.317 0.391328 7.23808 -0.579266 -0.492415 -0.649599 186 186 186
-12.2485 0.430397 7.20073 -0.416379 -0.28178 -0.864424 198 198 198
-12.2774 0.392372 7.2102 -0.400058 -0.491431 -0.773595 194 194 194
-11.854 0.487333 6.96489 -0.0521526 -0.246213 -0.967812 162 162 162
-11.1898 0.528005 7.08388 -0.595719 -0.133066 -0.792094 198 198 198
-11.5056 0.546497 6.98428 -0.50639 -0.561878 -0.654112 168 168 168
-11.3042 0.640239 7.01075 -0.322116 0.340157 -0.883479 168 168 168
-12.4273 0.628099 7.28548 -0.44923 -0.727531 -0.518547 208 208 208
-12.3605 0.620534 7.23557 -0.618504 -0.579241 -0.530973 201 201 201
-12.1368 0.635774 7.04829 -0.613543 -0.263948 -0.744242 188 188 188
-11.6283 0.657183 6.96765 -0.262624 0.330796 -0.906423 166 166 166
-11.049 0.697518 7.07275 -0.291982 0.337964 -0.894722 128 128 128
-11.0537 0.671365 7.07815 -0.434964 0.139429 -0.889587 175 175 175
-11.9209 0.720573 7.03248 -0.154544 0.675506 -0.720977 93 93 93
-11.0888 0.7689 7.22153 -0.735207 0.581354 -0.348567 59 59 59
-12.4553 0.739907 7.25342 -0.0570327 -0.365267 -0.929154 186 186 186
-12.0805 0.763015 7.09108 -0.627856 0.653801 -0.422304 94 94 94
-12.3975 0.775991 7.2124 -0.173186 0.0543742 -0.983387 190 190 190
-11.8374 0.826039 7.12878 -0.779812 0.158652 -0.605577 172 172 172
-12.5126 0.825988 7.28376 -0.299514 0.758907 -0.578231 163 163 163
-12.1843 0.859522 7.33071 -0.69649 0.403647 -0.593271 145 145 145
-12.1785 0.859196 7.34154 -0.177658 0.54597 -0.818752 128 128 128
-12.0878 0.870648 7.32911 -0.269871 0.268943 -0.924575 191 191 191
-12.1914 0.9006 7.3295 -0.231586 0.227901 -0.945743 160 160 160
-11.9478 0.904895 7.24235 -0.380535 -0.0680348 -0.922261 196 196 196
-11.7605 0.900061 7.14907 -0.180166 -0.625941 -0.758774 189 189 189
-11.597 0.944161 7.1879 -0.442206 -0.326639 -0.835321 191 191 191
-11.5562 0.943524 7.15769 -0.134993 -0.360354 -0.922996 178 178 178
-12.2331 0.921974 7.46053 -0.159785 0.666375 -0.728294 171 171 171
-12.0061 0.944054 7.24731 -0.443765 -0.0625873 -0.893955 192 192 192
-11.9619 0.944274 7.25847 -0.561579 -0.0808657 -0.823462 193 193 193
-11.7428 0.971953 7.14911 -0.327828 -0.23575 -0.91485 191 191 191
-11.5823 0.980795 7.15469 -0.124922 -0.375409 -0.918402 189 189 189
-10.9052 0.995479 7.35736 -0.360698 -0.367764 -0.857115 0 0 0
-12.3588 0.956012 7.55835 -0.228426 0.665663 -0.710432 133 133 133
-12.344 1.02716 7.62025 -0.803015 0.475223 -0.359624 153 153 153
-12.3261 1.02292 7.49194 -0.309191 -0.2493 -0.917742 134 134 134
-12.2493 1.00286 7.46595 -0.584415 -0.0632404 -0.808987 166 166 166
-12.0215 1.03161 7.23155 -0.295568 -0.345474 -0.890667 195 195 195
-11.9306 1.03215 7.21466 -0.648975 -0.390447 -0.65298 196 196 196
-12.3049 1.06079 7.4844 -0.735321 -0.321415 -0.596653 156 156 156
-12.3068 1.12413 7.44901 -0.561935 -0.184993 -0.80623 149 149 149
-11.5818 1.12289 7.10047 -0.239868 -0.485801 -0.840512 173 173 173
-12.856 1.16416 8.28749 -0.126752 0.554479 -0.822488 143 143 143
-12.34 1.15326 7.46754 -0.807499 -0.158008 -0.568313 148 148 148
-13.0593 1.17266 8.37413 -0.517831 0.0478073 -0.854146 0 0 0
-12.2841 1.20877 7.41234 -0.307287 -0.279853 -0.909537 156 156 156
-12.2563 1.24743 7.42889 -0.322573 -0.137727 -0.936471 168 168 168
-13.2155 1.26873 8.34817 -0.4823 -0.390572 -0.784117 0 0 0
-12.2885 1.28405 7.40531 -0.740861 -0.31301 -0.594264 160 160 160
-12.285 1.28356 7.39533 -0.80704 -0.153306 -0.570249 163 163 163
-12.2458 1.26402 7.38054 -0.813667 -0.0756544 -0.576388 171 171 171
-13.1431 1.31149 8.33933 -0.316814 -0.153888 -0.935921 13 13 13
-12.3462 1.3017 7.5014 -0.939436 -0.0852506 -0.331953 161 161 161
-12.3335 1.33663 7.429 -0.918839 -0.113375 -0.377996 161 161 161
-12.2722 1.31751 7.35178 -0.647316 -0.26161 -0.715921 165 165 165
-11.8012 1.37353 6.78953 -0.211757 0.397264 -0.892939 66 66 66
-11.7333 1.37073 6.77324 -0.287919 0.729603 -0.620308 71 71 71
-12.3089 1.40368 7.04367 -0.224209 -0.871817 -0.435506 156 156 156
-12.1354 1.40419 6.73365 -0.238637 -0.870029 -0.431396 46 46 46
-13.2364 1.48186 8.27835 -0.4915 -0.701482 -0.516091 0 0 0
-13.1515 1.51517 8.29465 -0.673643 -0.277754 -0.684878 0 0 0
-11.4696 1.6445 7.20749 -0.396816 -0.407244 -0.822611 158 158 158
-11.7356 1.7183 7.13707 -0.0130661 -0.494563 -0.869044 188 188 188
-11.6879 1.71857 7.13844 -0.563749 -0.40636 -0.719068 189 189 189
-12.1475 1.7569 7.58844 -0.939434 -0.191795 -0.284041 138 138 138
-12.0846 1.71983 7.41085 -0.148028 -0.479958 -0.864713 157 157 157
-11.7186 1.83792 7.08605 -0.428797 -0.459832 -0.777617 187 187 187
-11.7466 1.87034 7.05554 -0.178654 -0.471716 -0.863462 189 189 189
-11.9177 2.00855 7.09233 -0.274993 -0.558942 -0.78228 187 187 187
-11.7084 2.01442 6.99827 -0.0163208 0.117447 -0.992945 204 204 204
-11.7357 2.05368 6.98858 -0.0246555 -0.358979 -0.93302 208 208 208
-11.543 2.16127 7.01522 -0.561834 -0.243998 -0.790447 187 187 187
-11.8932 2.16668 7.03131 -0.677181 -0.27847 -0.681087 208 208 208
-11.5149 2.23262 7.00845 -0.788453 -0.269137 -0.553089 183 183 183
-11.9154 2.20174 7.01126 -0.541829 -0.147849 -0.827383 195 195 195
-11.553 2.2436 6.97757 -0.387278 -0.300129 -0.871745 184 184 184
-11.5401 2.24136 7.00666 -0.535404 -0.258918 -0.80393 185 185 185
-11.5376 2.28372 6.99941 -0.65084 -0.216394 -0.727723 185 185 185
-11.7328 2.30843 6.93042 -0.016268 -0.237833 -0.97117 203 203 203
-11.5498 2.32557 6.97763 -0.550691 -0.229198 -0.802625 185 185 185
-11.5496 2.39999 6.97948 -0.517894 -0.143715 -0.843287 176 176 176
-11.4577 2.40333 6.91039 0.080483 -0.204921 -0.975464 134 134 134
-11.8977 2.39593 6.96604 -0.443592 -0.175072 -0.878963 196 196 196
-11.5824 2.41366 7.00245 -0.289171 -0.121348 -0.949555 180 180 180
-11.7178 2.41929 6.91319 -0.0583404 -0.3794 -0.923391 208 208 208
-11.5629 2.45105 6.9917 -0.166195 -0.787482 -0.593508 195 195 195
-11.753 2.77446 7.30326 -0.811127 -0.326533 -0.48523 169 169 169
-11.8197 2.93876 7.0923 0.0307458 -0.416262 -0.908725 168 168 168
-11.7092 2.92886 7.0701 -0.0355035 -0.483465 -0.874643 182 182 182
-11.8085 2.96488 7.03601 0.059239 -0.433368 -0.899268 171 171 171
-11.7587 2.96304 7.04176 -0.0362084 -0.412641 -0.910174 177 177 177
-11.9932 3.29238 6.90657 -0.0275892 -0.467079 -0.883785 108 108 108
-12.3973 -4.36004 6.27009 -0.292674 0.931201 -0.217271 0 0 0
-12.346 -4.35938 6.31787 0.179632 0.791972 -0.583535 0 0 0
-12.245 -4.35009 6.24079 0.265415 0.858238 -0.439297 0 0 0
-12.4608 -4.36331 6.42442 -0.227408 0.147675 -0.962537 0 0 0
-12.3377 -4.33577 6.37629 0.394572 0.763842 -0.510743 0 0 0
-12.2292 -4.35169 6.33561 -0.269701 0.759929 -0.591414 0 0 0
-12.1854 -4.35916 6.31686 0.189824 0.731148 -0.655278 0 0 0
-12.4397 -4.29302 6.39094 0.260331 0.74551 -0.613549 0 0 0
-12.3188 -4.31508 6.41098 0.24423 0.753474 -0.610433 40 40 40
-12.2266 -4.32295 6.3835 0.0924156 0.765136 -0.637202 1 1 1
-11.9366 -4.39096 6.44343 -0.555045 -0.0245147 -0.831459 0 0 0
-11.7699 -4.36644 6.43475 0.354828 0.354272 -0.86521 0 0 0
-11.7307 -4.36122 6.41621 0.130832 0.756463 -0.640818 0 0 0
-11.4511 -4.43528 6.52166 -0.274427 0.615608 -0.738727 0 0 0
-11.4088 -4.43385 6.51283 -0.62964 0.483089 -0.608423 0 0 0
-12.4315 -4.28501 6.45389 -0.494204 0.609515 -0.619882 0 0 0
-12.3975 -4.28541 6.41604 0.267262 0.752403 -0.602048 9 9 9
-12.2823 -4.28765 6.41179 0.246657 0.70099 -0.669158 131 131 131
-12.1798 -4.30387 6.41163 0.202889 0.592996 -0.779225 43 43 43
-12.1297 -4.31873 6.40969 0.267793 0.712248 -0.648837 2 2 2
-12.0564 -4.31567 6.39089 -0.050847 0.940493 -0.335988 0 0 0
-11.8281 -4.30261 6.36981 -0.120773 0.967011 -0.224285 0 0 0
-11.746 -4.33042 6.43672 -0.340118 0.314052 -0.886392 0 0 0
-11.4243 -4.40246 6.54071 -0.105387 0.349482 -0.930997 0 0 0
-11.3835 -4.39968 6.52812 -0.0912587 -0.244865 -0.965253 10 10 10
-11.3181 -4.40677 6.50946 -0.04491 -0.129262 -0.990593 3 3 3
-11.3139 -4.40477 6.50691 -0.385995 -0.0759441 -0.91937 4 4 4
-12.3951 -4.25428 6.45658 0.249445 0.742651 -0.621488 21 21 21
-12.3578 -4.24834 6.48183 0.29156 0.730653 -0.617364 97 97 97
-12.3451 -4.25726 6.42894 -0.788994 0.526986 -0.315871 92 92 92
-12.1523 -4.26271 6.43765 0.479834 0.262767 -0.837086 102 102 102
-11.9806 -4.28204 6.48884 0.122871 0.510194 -0.851238 129 129 129
-12.0006 -4.27381 6.46512 0.256916 0.310757 -0.915109 130 130 130
-11.7173 -4.30024 6.46977 -0.398019 0.806498 -0.437199 15 15 15
-11.5856 -4.3319 6.49853 0.136617 0.097567 -0.985808 0 0 0
-11.4495 -4.37839 6.56577 0.0847662 0.222428 -0.971257 0 0 0
-11.403 -4.36465 6.5461 -0.167574 -0.359081 -0.91814 12 12 12
-12.402 -4.21392 6.48997 0.374538 0.692211 -0.6169 22 22 22
-12.2955 -4.20387 6.40841 0.103329 0.226046 -0.968621 89 89 89
-12.2682 -4.21692 6.46966 0.301864 0.760938 -0.574327 89 89 89
-12.2194 -4.24327 6.44054 0.139629 0.615048 -0.776028 89 89 89
-12.175 -4.23744 6.4758 -0.40387 0.639101 -0.654552 88 88 88
-12.0734 -4.25007 6.47166 0.24424 0.850867 -0.465158 91 91 91
-12.015 -4.24971 6.50521 0.216231 0.923533 -0.316752 88 88 88
-11.9738 -4.241 6.4761 0.13624 0.495462 -0.857879 88 88 88
-11.6952 -4.30218 6.4982 -0.0713362 0.944813 -0.319749 33 33 33
-11.6089 -4.29782 6.51196 0.0472752 0.62674 -0.777793 41 41 41
-11.4286 -4.33569 6.56715 -0.651818 0.309995 -0.692124 0 0 0
-11.392 -4.32709 6.53918 0.0969242 0.341494 -0.934873 42 42 42
-11.3183 -4.32389 6.51391 0.0982771 0.514504 -0.851838 159 159 159
-10.9773 -4.3045 6.40765 -0.155517 0.91908 -0.362087 0 0 0
-12.4055 -4.18213 6.52694 0.114838 0.710525 -0.694238 28 28 28
-12.3599 -4.21111 6.50941 -0.00219202 0.717734 -0.696314 105 105 105
-12.2128 -4.21416 6.48828 0.273427 0.625769 -0.730514 88 88 88
-12.2363 -4.17262 6.45384 -0.241869 0.135953 -0.960737 82 82 82
-12.0739 -4.22657 6.53644 0.231501 0.873648 -0.427957 88 88 88
-11.9551 -4.20773 6.49786 0.0212004 0.959892 -0.279568 88 88 88
-11.8048 -4.23712 6.51794 0.253406 0.826338 -0.502942 89 89 89
-11.7445 -4.25218 6.55018 0.0359604 0.971555 -0.234068 88 88 88
-11.6606 -4.24687 6.54474 0.160502 0.73988 -0.653313 88 88 88
-11.6089 -4.26198 6.5408 -0.250146 0.763263 -0.595699 112 112 112
-11.544 -4.26573 6.54377 0.0349653 0.813072 -0.581112 121 121 121
-11.408 -4.29295 6.56776 -0.397561 0.339673 -0.852389 84 84 84
-11.3569 -4.30249 6.52078 -0.25181 0.184711 -0.949986 123 123 123
-11.3197 -4.28416 6.53165 -0.138087 0.519123 -0.843471 78 78 78
-11.3273 -4.27278 6.54506 -0.153597 0.613505 -0.774609 114 114 114
-11.2872 -4.29804 6.50317 0.0483803 0.195103 -0.979589 94 94 94
-11.2469 -4.30219 6.4988 0.23498 -0.0421677 -0.971085 1 1 1
-11.2162 -4.28917 6.45442 -0.640986 0.335791 -0.690204 0 0 0
-12.4054 -4.15448 6.56685 0.144753 0.763299 -0.62962 41 41 41
-12.2759 -4.15584 6.5291 0.124546 0.623728 -0.771655 86 86 86
-11.9631 -4.21274 6.61734 0.46093 0.759488 -0.459044 85 85 85
-11.4161 -4.26265 6.60478 -0.77387 0.576849 -0.261477 95 95 95
-11.3813 -4.25808 6.57312 0.172704 0.608747 -0.774339 113 113 113
-11.1995 -4.28556 6.5711 0.236567 0.835863 -0.495348 49 49 49
-11.1515 -4.2856 6.56484 0.239972 0.737979 -0.630714 23 23 23
-11.134 -4.23804 6.51113 -0.33097 0.641654 -0.69191 119 119 119
-12.4429 -4.15236 6.59101 -0.590233 0.530925 -0.608065 0 0 0
-12.4035 -4.12454 6.60099 0.0993437 0.740765 -0.664378 66 66 66
-11.6092 -4.19336 6.60783 0.552329 0.615166 -0.562587 85 85 85
-11.4109 -4.23123 6.60585 -0.123742 0.741929 -0.65896 87 87 87
-11.3834 -4.22668 6.6012 0.130929 0.701038 -0.701002 99 99 99
-11.2448 -4.23304 6.57686 -0.15609 0.902086 -0.402338 95 95 95
-11.2337 -4.23624 6.59585 -0.14398 0.962896 -0.228255 93 93 93
-10.6386 -4.2767 6.62735 -0.370537 0.08139 -0.925245 8 8 8
-12.4446 -4.1152 6.61788 -0.455184 0.602852 -0.655269 0 0 0
-12.328 -4.11138 6.57843 -0.108472 0.225285 -0.968236 83 83 83
-11.6839 -4.15897 6.5636 0.411789 0.120839 -0.903232 86 86 86
-11.4228 -4.20979 6.63969 -0.321729 0.62733 -0.709188 88 88 88
-11.3846 -4.18291 6.64408 0.199793 0.732727 -0.650533 107 107 107
-11.1705 -4.22172 6.64391 -0.100534 0.962674 -0.2513 87 87 87
-11.0982 -4.23748 6.64357 -0.750336 0.63662 -0.178075 83 83 83
-10.783 -4.23879 6.57522 -0.365089 0.61712 -0.697046 113 113 113
-10.7256 -4.23343 6.62597 -0.408726 0.37859 -0.830429 119 119 119
-10.6648 -4.24164 6.66464 0.32368 0.0921934 -0.941664 123 123 123
-10.6164 -4.24633 6.66033 -0.386162 0.107432 -0.916154 133 133 133
-10.3721 -4.28348 6.69188 0.142253 0.611811 -0.778108 7 7 7
-10.2728 -4.28289 6.69108 0.1414 0.682584 -0.716997 0 0 0
-10.2242 -4.28735 6.70005 -0.200009 0.34459 -0.917199 0 0 0
-12.3518 -4.07088 6.66415 -0.0958035 0.699229 -0.70845 88 88 88
-12.2027 -4.05523 6.58717 0.0638062 0.964816 -0.255068 88 88 88
-11.7798 -4.13785 6.66086 -0.461833 0.81013 -0.361109 87 87 87
-11.7416 -4.11995 6.65254 0.252022 0.810956 -0.528048 86 86 86
-11.7157 -4.12089 6.6137 -0.287595 0.919667 -0.267397 86 86 86
-11.4663 -4.15425 6.68866 0.135171 0.716566 -0.684297 86 86 86
-11.4255 -4.17199 6.66493 -0.02149 0.716547 -0.697208 87 87 87
-11.3832 -4.15373 6.68075 0.079418 0.720234 -0.68917 122 122 122
-10.7463 -4.21832 6.63599 -0.327102 0.586925 -0.740623 97 97 97
-10.6397 -4.2189 6.69671 0.295494 0.314851 -0.901971 86 86 86
-10.5932 -4.2122 6.67114 0.140035 0.13727 -0.980585 88 88 88
-10.4288 -4.24289 6.68844 0.194582 0.242509 -0.950435 123 123 123
-10.2903 -4.24672 6.72384 0.0456519 0.725965 -0.686214 5 5 5
-12.3925 -4.0522 6.68492 0.118909 0.695484 -0.708634 112 112 112
-12.3723 -4.02602 6.68168 -0.378184 0.648655 -0.660472 108 108 108
-12.3145 -4.04 6.70508 0.557225 0.547435 -0.624352 96 96 96
-12.2117 -4.05256 6.67659 0.0689164 0.790495 -0.608579 87 87 87
-12.2068 -4.04392 6.67347 0.116309 0.855603 -0.504396 88 88 88
-12.1625 -4.07019 6.67747 -0.258134 0.695051 -0.671022 87 87 87
-11.7414 -4.0884 6.69563 -0.176046 0.789179 -0.588391 86 86 86
-11.7089 -4.11477 6.7228 0.12695 0.232294 -0.964325 80 80 80
-11.4729 -4.11502 6.70792 0.109339 0.791282 -0.601596 86 86 86
-11.4289 -4.13387 6.68915 0.113587 0.728869 -0.675165 86 86 86
-11.3837 -4.12086 6.71378 0.240161 0.720934 -0.650059 122 122 122
-11.3849 -4.12107 6.71215 0.279652 0.717644 -0.637794 121 121 121
-11.3405 -4.13909 6.70091 0.093213 0.733917 -0.672813 103 103 103
-11.2938 -4.12632 6.72436 0.0928164 0.714823 -0.693119 85 85 85
-11.2942 -4.12679 6.72649 0.108806 0.707237 -0.698553 85 85 85
-10.7574 -4.17266 6.64839 -0.42007 0.587589 -0.691578 84 84 84
-10.7139 -4.1537 6.66396 0.0793585 0.58726 -0.805498 82 82 82
-10.6656 -4.18083 6.70104 -0.41196 0.298023 -0.861087 84 84 84
-10.4857 -4.20246 6.73386 0.0319166 -0.0599966 -0.997688 85 85 85
-10.4205 -4.20246 6.75725 0.40759 0.24445 -0.879838 85 85 85
-10.3857 -4.23565 6.73321 0.0504287 0.68477 -0.727012 111 111 111
-10.3591 -4.22293 6.74693 0.135379 0.739536 -0.659363 94 94 94
-10.3632 -4.22519 6.73068 0.295548 0.721664 -0.625982 102 102 102
-10.298 -4.21448 6.76252 0.0348927 0.732079 -0.680326 8 8 8
-12.4294 -4.00252 6.72377 0.37707 0.699915 -0.606578 65 65 65
-12.3484 -3.99392 6.71002 -0.288489 0.550679 -0.783279 90 90 90
-12.3012 -3.99915 6.7075 0.20718 0.414319 -0.886237 92 92 92
-12.2689 -4.0208 6.69549 -0.102185 0.549944 -0.828927 92 92 92
-12.206 -4.01655 6.71554 0.376103 0.745103 -0.550789 102 102 102
-12.1654 -4.03018 6.69616 0.125593 0.621377 -0.77338 95 95 95
-12.0422 -4.02508 6.71576 0.070621 0.939878 -0.334128 92 92 92
-11.989 -4.03909 6.72103 -0.237836 0.744872 -0.623378 89 89 89
-11.9904 -4.04502 6.72542 -0.251795 0.723061 -0.643259 88 88 88
-11.7005 -4.06025 6.7005 0.277398 0.810946 -0.515186 85 85 85
-11.4277 -4.10209 6.73285 0.0798709 0.760931 -0.643898 86 86 86
-11.337 -4.10578 6.74366 0.148769 0.752403 -0.641683 95 95 95
-11.2968 -4.08932 6.75294 0.0329587 0.721789 -0.691328 82 82 82
-10.3646 -4.19426 6.80634 -0.6125 0.504976 -0.608147 89 89 89
-10.3316 -4.20516 6.77361 0.0529673 0.693466 -0.71854 77 77 77
-12.4928 -3.9569 6.76689 -0.0135896 0.720263 -0.693568 0 0 0
-12.4497 -3.97268 6.74555 -0.0248284 0.723313 -0.690073 17 17 17
-12.3848 -3.98759 6.7549 0.119669 0.701164 -0.702886 88 88 88
-12.3449 -3.96936 6.76223 0.0030517 0.542454 -0.84008 87 87 87
-12.2905 -3.97911 6.77061 0.465682 0.751574 -0.467201 85 85 85
-12.2026 -3.98514 6.75942 0.273105 0.805932 -0.52525 87 87 87
-12.127 -3.98637 6.74738 0.452392 0.628433 -0.632783 85 85 85
-12.1042 -4.01244 6.72298 0.221589 0.670394 -0.708145 94 94 94
-11.9903 -4.00501 6.75533 0.103079 0.674606 -0.730945 101 101 101
-11.9435 -4.01792 6.74356 0.227687 0.695421 -0.681578 94 94 94
-11.9021 -4.02671 6.71817 0.0684562 0.765656 -0.639597 87 87 87
-11.8096 -4.02933 6.72515 0.12749 0.872235 -0.472179 87 87 87
-11.7454 -4.02485 6.78289 0.152478 0.600679 -0.784816 89 89 89
-11.4682 -4.05084 6.79712 -0.166349 0.617177 -0.769039 86 86 86
-11.4284 -4.06717 6.76745 0.0799906 0.73543 -0.672863 88 88 88
-11.3853 -4.05322 6.78772 0.119364 0.726286 -0.67695 121 121 121
-11.3383 -4.06933 6.77541 0.0844409 0.687125 -0.721615 88 88 88
-10.7611 -4.08118 6.70784 -0.382367 0.899513 -0.211358 77 77 77
-10.3681 -4.15902 6.8433 -0.620334 0.498973 -0.605154 92 92 92
-10.3296 -4.15863 6.81546 0.033711 0.735408 -0.676786 57 57 57
-10.2974 -4.17314 6.80546 0.0354207 0.727397 -0.685302 2 2 2
-12.4476 -3.93644 6.7896 0.207324 0.726973 -0.65462 39 39 39
-12.2458 -3.96986 6.769 0.0315508 0.852229 -0.522217 87 87 87
-12.1553 -3.94676 6.77862 0.237877 0.770179 -0.59181 87 87 87
-12.0766 -3.98332 6.79315 0.372783 0.819193 -0.435839 86 86 86
-12.0344 -3.9924 6.77234 0.439645 0.737065 -0.513272 89 89 89
-11.9913 -3.9684 6.78478 0.0846484 0.581042 -0.809459 86 86 86
-11.9529 -3.98757 6.77025 0.223246 0.695294 -0.683174 90 90 90
-11.9097 -3.9683 6.79316 0.252847 0.638231 -0.727138 85 85 85
-11.5033 -4.01072 6.82274 0.158867 0.6174 -0.770441 102 102 102
-11.5435 -4.0227 6.79511 0.182864 0.651146 -0.736593 88 88 88
-11.471 -4.02091 6.83183 -0.283408 0.709984 -0.644673 92 92 92
-11.428 -4.03329 6.80614 0.11756 0.731658 -0.671458 90 90 90
-11.0781 -4.06694 6.83231 -0.438867 0.715057 -0.54414 85 85 85
-10.7572 -4.06628 6.7946 -0.3075 0.925446 -0.221344 77 77 77
-10.4099 -4.12541 6.91179 -0.629454 0.382837 -0.676183 84 84 84
-10.3726 -4.12324 6.87896 -0.62801 0.524818 -0.574604 90 90 90
-10.3334 -4.12723 6.85444 0.0411599 0.711165 -0.701819 49 49 49
-10.2517 -4.10982 6.84614 0.19786 0.235857 -0.951432 0 0 0
-12.5305 -3.90135 6.80691 -0.0585198 0.731569 -0.679251 0 0 0
-12.4906 -3.92039 6.80423 -0.0555236 0.709103 -0.702915 0 0 0
-12.4482 -3.90527 6.83227 0.0901529 0.758573 -0.645322 57 57 57
-12.399 -3.91283 6.83558 0.161941 0.735887 -0.657454 94 94 94
-12.2023 -3.9178 6.83606 0.227435 0.914228 -0.335351 89 89 89
-11.8919 -3.95237 6.76681 0.411892 0.293666 -0.862615 84 84 84
-11.4502 -3.9925 6.86679 -0.303868 0.789206 -0.533684 91 91 91
-11.365 -3.9986 6.856 0.16073 0.745287 -0.64708 111 111 111
-11.3005 -4.016 6.84696 0.194952 0.719869 -0.66617 88 88 88
-11.1689 -4.01607 6.86694 -0.351523 0.0315128 -0.935649 90 90 90
-11.0761 -4.02746 6.85492 -0.43557 0.824394 -0.36146 85 85 85
-10.9299 -4.0266 6.87224 0.0762935 0.848641 -0.523439 84 84 84
-10.7458 -4.04364 6.87044 -0.480749 0.797281 -0.364998 84 84 84
-10.4097 -4.09343 6.95019 -0.663841 0.461122 -0.588797 84 84 84
-12.4882 -3.8846 6.83096 0.220487 0.749064 -0.624731 0 0 0
-12.45 -3.86906 6.8649 -0.192271 0.716641 -0.670415 73 73 73
-11.7769 -3.91518 6.81977 0.0499711 0.905083 -0.422288 85 85 85
-11.5622 -3.96805 6.88001 0.148618 0.89121 -0.428552 84 84 84
-11.5233 -3.96219 6.86251 0.113096 0.730319 -0.673679 85 85 85
-11.4759 -3.95058 6.87151 0.317972 0.758839 -0.568382 85 85 85
-11.4053 -3.96427 6.87912 0.142053 0.757406 -0.637305 117 117 117
-11.3559 -3.96528 6.8915 0.119103 0.783259 -0.61018 87 87 87
-11.3173 -3.96822 6.86478 0.0554009 0.749381 -0.659817 85 85 85
-11.2592 -3.97435 6.8744 -0.350471 0.0394184 -0.935744 87 87 87
-11.1715 -3.97414 6.86872 -0.31727 -0.246093 -0.915848 93 93 93
-10.8816 -4.02008 6.89434 0.145325 0.801781 -0.579679 85 85 85
-10.7878 -4.0295 6.90335 0.0488493 0.793855 -0.606142 84 84 84
-10.7477 -4.00922 6.90836 0.15622 0.770955 -0.617433 85 85 85
-10.6611 -4.04667 6.93139 0.336746 0.0788602 -0.938287 85 85 85
-10.5914 -4.06112 6.93728 0.514694 0.0132784 -0.857271 84 84 84
-10.5454 -4.05452 6.95549 0.0747902 0.294015 -0.95287 84 84 84
-10.4011 -4.07531 6.94971 -0.636926 0.490679 -0.594609 84 84 84
-10.3715 -4.04023 6.94334 0.0538922 0.692388 -0.71951 88 88 88
-12.5015 -3.84814 6.86966 0.0715835 0.728698 -0.681084 0 0 0
-12.328 -3.84949 6.87509 -0.477693 0.81537 -0.327079 81 81 81
-12.1222 -3.8855 6.91795 -0.12274 0.962034 -0.243772 85 85 85
-11.5587 -3.93837 6.93155 0.462844 0.70043 -0.543298 85 85 85
-11.4735 -3.94634 6.90522 0.0126813 0.715933 -0.698054 85 85 85
-11.4723 -3.92294 6.92226 0.0893876 0.710216 -0.698286 85 85 85
-11.0552 -3.97134 6.92182 -0.311532 0.699892 -0.642727 86 86 86
-10.8781 -3.96919 6.97378 -0.0513076 -0.460691 -0.886077 84 84 84
-10.747 -3.98043 6.95963 0.103887 0.763363 -0.637561 92 92 92
-10.7917 -3.99473 6.93912 -0.363977 0.785771 -0.500085 95 95 95
-10.6692 -3.98565 6.94725 0.11721 0.715972 -0.688219 100 100 100
-10.6007 -4.01394 6.95533 0.444079 0.692 -0.569148 84 84 84
-10.4684 -4.0027 6.9585 0.327288 0.731252 -0.598459 84 84 84
-10.4715 -4.01374 6.96912 0.0700624 0.625455 -0.777108 84 84 84
-12.4831 -3.81635 6.91043 0.227829 0.724841 -0.650153 11 11 11
-12.3658 -3.8324 6.90176 -0.14589 0.665951 -0.731591 86 86 86
-12.3334 -3.82792 6.93143 0.623337 0.399775 -0.672035 86 86 86
-12.1589 -3.84084 6.90422 -0.027117 0.436762 -0.899168 85 85 85
-12.1023 -3.85031 6.94173 0.256948 0.298473 -0.91918 85 85 85
-11.7871 -3.85375 6.92702 -0.624773 0.547402 -0.556786 84 84 84
-11.5096 -3.91789 6.96116 -0.302337 0.661048 -0.686737 86 86 86
-11.4694 -3.89078 6.96769 -0.311917 0.656893 -0.686439 85 85 85
-10.977 -3.95541 6.95992 -0.304774 0.711015 -0.633695 84 84 84
-10.9026 -3.93987 6.92939 -0.645683 0.583884 -0.492112 83 83 83
-10.8104 -3.93215 6.9816 -0.0891841 -0.432116 -0.897397 83 83 83
-10.8358 -3.96697 6.96483 -0.212062 -0.467212 -0.858337 86 86 86
-10.6917 -3.96545 6.98906 -0.0209676 0.885184 -0.464768 84 84 84
-10.5457 -3.99234 6.98507 -0.208755 0.83302 -0.512347 102 102 102
-10.5091 -3.97203 6.99001 0.0971812 0.643604 -0.759163 94 94 94
-10.4658 -3.96729 7.0034 0.290624 0.669396 -0.683701 89 89 89
-10.4167 -3.981 6.9913 0.20416 0.711042 -0.672858 100 100 100
-10.3695 -4.00511 6.9825 0.0357911 0.73546 -0.676622 80 80 80
-12.5239 -3.7719 6.97187 -0.180604 0.698697 -0.692246 0 0 0
-12.4821 -3.7845 6.95124 0.119872 0.718609 -0.685005 25 25 25
-12.4384 -3.77303 6.97298 0.0943537 0.748115 -0.656827 108 108 108
-12.4061 -3.77427 6.94441 0.112832 0.692624 -0.712419 87 87 87
-12.3611 -3.7956 6.95862 0.55507 0.450871 -0.699009 85 85 85
