ply
format ascii 1.0
element vertex 743
property float x
property float y
property float z
property float nx
property float ny
property float nz
property uchar diffuse_red
property uchar diffuse_green
property uchar diffuse_blue
end_header
-2.90334 -2.36817 -10.3754 -0.440414 0.744811 0.50129 3 3 3
-2.94658 -2.36078 -10.4328 -0.000642376 0.999998 -0.00203541 14 14 14
-3.34694 -2.19245 -10.8152 -0.999899 -0.00051629 -0.0141865 0 0 0
-2.84109 -2.37265 -10.3245 -0.637722 0.396336 0.660476 2 2 2
-3.32375 -2.17799 -10.8013 -0.377884 0.00664734 0.925829 15 15 15
-2.81628 -2.36171 -10.2684 -0.000317036 0.999995 -0.00306597 0 0 0
-2.70126 -2.36634 -10.1583 -0.0210944 0.998981 -0.0398952 0 0 0
-2.74404 -2.35165 -10.2042 -0.184442 0.945536 0.268221 1 1 1
-2.77246 -2.36103 -10.2943 -0.000645271 0.999995 -0.00314298 13 13 13
-2.70522 -2.3481 -10.2374 -0.49826 0.676599 0.542172 10 10 10
-2.59477 -2.36959 -10.081 -0.3031 0.930107 -0.207439 0 0 0
-2.65057 -2.3587 -10.1967 -0.0119002 0.998879 0.0458162 11 11 11
-2.68449 -2.35479 -10.2188 -0.172246 0.846194 0.504268 13 13 13
-3.34196 -2.0701 -10.8123 -0.99891 0.00249031 0.0466066 0 0 0
-2.59944 -2.35934 -10.2251 -0.0235176 0.999544 0.0189594 11 11 11
-2.67874 -2.32696 -10.2418 -0.658849 0.642034 0.392059 9 9 9
-2.69861 -2.33008 -10.2668 -0.722091 0.669756 0.173238 11 11 11
-3.33808 -2.04219 -10.8123 -0.998597 0.00405195 -0.052794 0 0 0
-2.34989 -2.22463 -9.96294 -0.9951 0.0247699 -0.0957195 8 8 8
-2.35185 -2.20339 -9.9929 -0.994169 0.010336 -0.107338 10 10 10
-2.34925 -2.15701 -9.96903 -0.882695 0.0107616 -0.469823 8 8 8
-2.33601 -2.17468 -9.99653 -0.951358 -0.0189575 -0.307503 10 10 10
-2.35112 -2.12754 -9.93266 -0.928616 0.0579447 -0.366489 9 9 9
-2.36409 -2.11592 -9.98698 -0.997714 0.00572263 0.0673431 10 10 10
-2.36262 -2.08101 -9.98739 -0.998746 3.05053e-005 0.0500644 10 10 10
-2.36314 -2.04553 -9.98774 -0.998841 -0.000636329 0.0481322 10 10 10
-1.23103 -2.3774 -8.9175 -0.111815 0.98019 -0.163479 0 0 0
-2.36092 -2.01239 -9.98771 -0.992704 -0.0658605 0.101002 8 8 8
-3.34392 -1.69684 -10.8334 -0.995612 -1.31173e-005 0.0935777 0 0 0
-2.35782 -1.97898 -9.98771 -0.999724 -0.00178339 0.0234187 10 10 10
-3.34782 -1.65208 -10.8142 -0.999933 0.00892671 -0.00733003 0 0 0
-1.3117 -2.27328 -9.0182 -0.850054 -0.526081 0.0254195 8 8 8
-2.35455 -1.94529 -9.93341 -0.971859 0.00341611 -0.235537 9 9 9
-3.34299 -1.64124 -10.792 -0.606692 -0.0370348 0.794074 12 12 12
-2.35857 -1.93214 -9.98277 -0.976581 0.00916258 -0.214954 10 10 10
-1.33699 -2.21703 -9.01915 -0.828657 0.178415 -0.530562 6 6 6
-2.35682 -1.89846 -9.98323 -0.979241 -0.0103949 -0.202432 10 10 10
-1.33314 -2.17491 -9.01921 -0.862824 0.12639 -0.48945 6 6 6
-2.35653 -1.86397 -9.98339 -0.970348 -0.0133718 -0.241342 10 10 10
-1.33153 -2.13207 -9.01931 -0.875986 0.111727 -0.469219 6 6 6
-1.33255 -2.14116 -9.05123 -0.869822 -0.0152546 -0.49313 6 6 6
-2.34034 -1.86045 -9.96311 -0.893742 0.0322193 -0.447423 9 9 9
-3.34416 -1.54419 -10.8165 -0.974595 0.0136826 -0.223556 0 0 0
-2.3372 -1.82703 -9.96434 -0.860529 0.03189 -0.508402 9 9 9
-2.35013 -1.83175 -9.98427 -0.939878 0.028115 -0.340351 10 10 10
-3.34526 -1.50588 -10.7957 -0.680953 -0.0438787 0.731011 8 8 8
-3.34431 -1.51792 -10.8166 -0.980634 0.0042503 -0.195801 0 0 0
-1.34887 -2.08002 -9.01992 -0.786352 0.080336 -0.612532 6 6 6
-1.33156 -2.10051 -9.05212 -0.868212 -0.0154351 -0.495953 6 6 6
-2.35528 -1.79711 -9.96545 -0.98598 0.0221364 -0.16539 10 10 10
-2.34476 -1.79921 -9.98516 -0.895758 0.0604543 -0.440413 10 10 10
-3.3528 -1.48746 -10.8167 -0.9979 -0.00189733 0.0647487 0 0 0
-1.34268 -2.03829 -9.01987 -0.782275 0.139143 -0.607194 6 6 6
-2.34033 -1.76421 -9.98559 -0.849316 0.00917136 -0.527805 13 13 13
-3.34627 -1.4767 -10.795 -0.617346 -0.0544452 0.784805 8 8 8
-3.34929 -1.4626 -10.8177 -0.998352 0.000842178 -0.0573803 0 0 0
-3.34624 -1.45204 -10.7969 -0.692465 -0.0419976 0.720228 6 6 6
-0.387952 -2.26294 -8.17866 -0.457228 0.583536 -0.67114 0 0 0
-1.33404 -1.97267 -9.02792 -0.933924 -0.0178404 -0.357026 6 6 6
-1.2798 -2.00945 -9.04256 -0.773553 -0.0436667 0.632226 9 9 9
-3.34631 -1.42668 -10.7971 -0.705931 -0.0445269 0.70688 6 6 6
-3.34912 -1.43725 -10.8177 -0.998103 0.00156332 -0.0615462 0 0 0
-0.378937 -2.21491 -8.17261 -0.488826 0.745778 -0.452619 0 0 0
-0.378937 -2.21491 -8.17261 -0.488826 0.745778 -0.452619 0 0 0
-0.378937 -2.21491 -8.17261 -0.488826 0.745778 -0.452619 0 0 0
-0.376454 -2.22654 -8.1982 -0.508928 0.0163045 -0.860655 0 0 0
-0.306308 -2.24986 -8.29006 -0.711089 0.612498 -0.345252 6 6 6
-3.34732 -1.4012 -10.7971 -0.653007 -0.021881 0.757035 6 6 6
-3.34901 -1.41209 -10.8177 -0.997249 -0.00025812 -0.0741286 0 0 0
-0.425297 -2.14372 -8.182 -0.344768 0.62727 -0.698332 0 0 0
-0.382263 -2.164 -8.20089 -0.518955 0.00137845 -0.8548 0 0 0
-1.34473 -1.92654 -9.02598 -0.918581 0.0570865 -0.391087 6 6 6
-2.63088 -1.56427 -10.1522 -0.728288 -0.353027 0.587341 17 17 17
-3.34755 -1.38782 -10.8182 -0.993093 0.000324525 -0.117329 0 0 0
-0.297558 -2.17115 -8.25849 -0.628972 0.0878145 -0.772453 5 5 5
-0.282464 -2.19646 -8.28884 -0.643734 0.176362 -0.744649 7 7 7
-1.33707 -1.88356 -9.02395 -0.88866 -0.00630678 -0.458524 6 6 6
-1.33703 -1.89336 -9.05766 -0.680049 -0.0395489 -0.732099 6 6 6
-2.51021 -1.58169 -10.0579 -0.808059 -0.376014 0.453491 14 14 14
-2.55876 -1.56368 -10.1006 -0.804446 0.533353 0.261536 14 14 14
-2.66689 -1.52928 -10.2163 -0.215957 0.963201 0.16002 13 13 13
-2.77212 -1.50097 -10.2964 -0.880758 0.262838 0.393932 11 11 11
-3.3458 -1.35228 -10.7981 -0.722057 -0.0166277 0.691633 6 6 6
-3.34951 -1.3626 -10.8183 -0.99929 0.00152606 -0.0376411 0 0 0
-0.400505 -2.09995 -8.17859 -0.354526 0.646648 -0.675395 0 0 0
-0.371284 -2.10821 -8.20064 -0.665308 0.0185389 -0.746339 0 0 0
-0.3645 -2.09923 -8.19931 -0.566718 0.134803 -0.812809 0 0 0
-0.333351 -2.13768 -8.22844 -0.538522 0.0184573 -0.842409 2 2 2
-0.288142 -2.13728 -8.289 -0.655471 0.25114 -0.712241 7 7 7
-2.56308 -1.54481 -10.125 -0.14312 0.988431 0.050199 20 20 20
-2.66791 -1.51218 -10.2357 -0.750668 0.602669 0.270716 10 10 10
-0.403493 -2.04551 -8.17116 -0.256425 0.762964 -0.593407 0 0 0
-0.324826 -2.08084 -8.22829 -0.565827 0.153842 -0.810045 2 2 2
-0.284369 -2.11903 -8.2584 -0.500224 0.0538148 -0.864222 5 5 5
-0.370667 -2.05402 -8.20066 -0.665053 0.00649049 -0.746768 0 0 0
-0.374988 -2.0369 -8.20341 -0.467083 0.114216 -0.876806 0 0 0
-2.31135 -1.54558 -9.86766 -0.975471 -0.0994013 -0.196406 4 4 4
-3.34959 -1.2837 -10.8187 -0.99959 0.000854874 -0.028637 0 0 0
-0.390243 -1.98832 -8.18273 -0.539918 0.373146 -0.754487 0 0 0
-2.28398 -1.51368 -9.86556 -0.640566 0.478417 0.60066 11 11 11
-3.34987 -1.25957 -10.8187 -0.999758 0.00199441 -0.0219182 0 0 0
-0.221941 -2.01624 -8.28604 -0.55049 0.00102601 -0.834841 7 7 7
-1.31915 -1.71492 -9.00673 -0.999695 -0.0230633 0.00880647 7 7 7
-1.3371 -1.72603 -9.02962 -0.984465 -0.0225277 -0.174129 7 7 7
-2.12407 -1.53023 -9.75444 -0.197271 0.978893 -0.053413 10 10 10
-2.17092 -1.53915 -9.77877 -0.296205 0.953693 0.052275 14 14 14
-2.23163 -1.51025 -9.82503 -0.379864 0.800927 0.462839 10 10 10
-2.30501 -1.49291 -9.88858 -0.717359 0.0693138 0.693247 10 10 10
-2.35155 -1.47431 -9.93999 -0.836477 0.00398237 0.547987 20 20 20
-0.328493 -1.94096 -8.23212 -0.723649 0.0264462 -0.689662 2 2 2
-0.344034 -1.93351 -8.22465 -0.580765 -0.0188261 -0.813853 1 1 1
-0.29077 -1.97051 -8.26329 -0.548212 0.0867304 -0.83183 5 5 5
-1.32108 -1.69227 -9.04182 -0.980682 -0.00467342 -0.195554 7 7 7
-2.06373 -1.52219 -9.72676 -0.208489 0.975933 0.0639227 9 9 9
-2.09717 -1.51302 -9.78102 -0.188561 0.981925 0.016393 12 12 12
-2.14886 -1.51818 -9.79967 -0.270454 0.926523 0.261553 10 10 10
-2.26184 -1.48391 -9.86498 -0.600782 0.152485 0.784735 13 13 13
-2.35077 -1.44268 -9.93998 -0.84795 -0.0443525 0.528217 20 20 20
-3.34152 -1.2206 -10.8098 -0.999551 -0.0173585 0.0244382 0 0 0
-3.33518 -1.23568 -10.8329 -0.999734 -0.00231217 0.0229636 0 0 0
-1.32205 -1.6746 -9.00727 -0.999937 -0.00170967 -0.0111033 7 7 7
-2.09312 -1.50756 -9.77991 -0.266131 0.948715 -0.170629 9 9 9
-2.31961 -1.42647 -9.89295 -0.938095 -0.0175554 0.345932 9 9 9
-0.276765 -1.88905 -8.30012 -0.995857 -0.00212042 -0.0909116 5 5 5
-1.99717 -1.4929 -9.65448 -0.658551 0.713372 0.239608 9 9 9
-2.33808 -1.40687 -9.91423 -0.942432 -0.00788539 0.334305 10 10 10
-2.34801 -1.40374 -9.94096 -0.981807 -0.0460197 0.18422 17 17 17
-3.34772 -1.16619 -10.8068 -0.987776 6.36678e-005 0.15588 0 0 0
-0.276599 -1.84296 -8.30008 -0.995682 -0.00334179 -0.092775 7 7 7
-2.33531 -1.36952 -9.86982 -0.971355 0.0135395 0.237247 10 10 10
-2.34028 -1.37432 -9.91278 -0.966622 -0.0116787 0.255942 10 10 10
-2.31958 -1.34368 -9.86605 -0.944163 0.132811 0.301524 8 8 8
-2.33599 -1.34508 -9.91526 -0.830335 -0.0101291 0.557173 12 12 12
-0.899698 -1.62384 -8.68734 -0.959684 0.0797036 -0.269543 6 6 6
-2.35009 -1.30234 -9.87387 -0.992075 0.0291766 -0.122216 9 9 9
-2.34135 -1.31176 -9.9164 -0.921511 -0.0156765 0.388036 11 11 11
-2.33884 -1.30651 -9.93573 -0.799495 -0.00434403 0.600657 21 21 21
-0.339566 -1.72946 -8.17302 -0.521548 0.0389922 -0.85233 0 0 0
-0.855203 -1.62264 -8.64574 -0.918231 -0.125217 -0.37573 5 5 5
-0.929956 -1.59141 -8.72961 -0.983964 0.110683 0.139871 6 6 6
-2.32822 -1.27859 -9.8686 -0.937575 0.00781086 0.347695 13 13 13
-0.32352 -1.69189 -8.17014 -0.84793 0.0179114 -0.529806 0 0 0
-0.817342 -1.5703 -8.65408 -0.979443 0.186284 0.0773876 12 12 12
-0.905851 -1.57912 -8.70282 -0.94765 0.315019 0.0521875 6 6 6
-0.917231 -1.55536 -8.7404 -0.648757 0.313935 0.693223 22 22 22
-0.903949 -1.55767 -8.72453 -0.334027 0.906491 0.258263 22 22 22
-0.95494 -1.56426 -8.76927 -0.495536 0.764007 0.413204 16 16 16
-2.33286 -1.24594 -9.87057 -0.952303 -0.0060544 0.305094 13 13 13
-2.33443 -1.24546 -9.87081 -0.955721 0.00277814 0.294261 11 11 11
-2.34105 -1.24962 -9.91614 -0.921668 -0.0214304 0.387387 11 11 11
-0.324928 -1.64284 -8.17124 -0.865438 -0.265026 -0.42518 0 0 0
-0.486795 -1.60756 -8.34037 -0.967193 0.136723 0.214112 5 5 5
-0.489893 -1.63107 -8.37619 -0.791398 -0.595372 0.13864 7 7 7
-0.807851 -1.55241 -8.65113 -0.88943 0.411193 0.199586 18 18 18
-2.34325 -1.24176 -9.93451 -0.919997 -0.02792 0.390928 18 18 18
-2.36495 -1.24252 -9.98442 -0.950971 -0.0222707 0.308477 9 9 9
-0.420786 -1.593 -8.30143 -0.909097 0.411473 0.0650627 5 5 5
-0.53045 -1.57347 -8.38928 -0.351606 0.908228 0.226927 9 9 9
-0.527438 -1.56265 -8.41708 -0.270403 0.962323 -0.0285899 20 20 20
-0.594437 -1.55652 -8.4703 -0.831952 0.447794 0.327624 19 19 19
-2.33022 -1.21575 -9.87031 -0.933943 0.105407 0.341526 13 13 13
-2.34597 -1.20573 -9.93455 -0.92183 -0.0188801 0.387133 18 18 18
-2.33761 -1.20238 -9.98629 -0.920299 0.0482365 -0.388232 9 9 9
-0.390792 -1.54871 -8.29359 -0.907249 0.0506838 0.417529 16 16 16
-0.441774 -1.5652 -8.34306 -0.523266 0.717323 0.460044 19 19 19
-0.628188 -1.53058 -8.5148 -0.691898 0.720931 0.0391811 9 9 9
-0.662171 -1.53114 -8.56253 -0.5186 0.74982 0.410881 8 8 8
-0.73781 -1.49077 -8.61531 -0.94594 0.158198 0.283143 6 6 6
-2.34784 -1.17447 -9.9343 -0.928478 0.0384126 0.369395 18 18 18
-0.40853 -1.52169 -8.33447 -0.719041 0.13946 0.680831 7 7 7
-0.427699 -1.52435 -8.39416 -0.56722 0.819129 0.0853769 6 6 6
-0.477334 -1.53073 -8.44954 -0.345934 0.930832 0.117821 7 7 7
-0.537782 -1.51696 -8.46743 -0.581782 0.628508 0.516243 7 7 7
-2.34482 -1.14284 -9.93271 -0.922757 -0.0224189 0.38473 18 18 18
-2.33599 -1.17216 -9.9863 -0.922606 0.0143199 -0.385478 9 9 9
-0.409469 -1.48477 -8.40189 -0.702131 0.71204 0.00331759 5 5 5
-2.34068 -1.1277 -9.89021 -0.992657 0.00239421 0.120943 9 9 9
-2.33675 -1.14139 -9.98603 -0.938976 0.00460131 -0.343952 9 9 9
-0.38272 -1.41524 -8.17267 -0.496986 0.761256 -0.416527 0 0 0
-3.32509 -0.910568 -10.8152 -0.906846 -0.0630248 0.416724 3 3 3
-0.332463 -1.38158 -8.17651 -0.733567 -0.00674404 -0.679583 0 0 0
-0.3556 -1.38611 -8.20545 -0.744858 -0.12361 -0.655673 0 0 0
-0.315476 -1.40469 -8.30953 -0.972874 -0.0329319 0.228978 7 7 7
-0.347423 -1.34465 -8.20919 -0.722936 -0.0214146 -0.690583 0 0 0
-0.30029 -1.36432 -8.30731 -0.977169 -0.00567388 -0.212385 7 7 7
-2.29799 -1.00773 -9.86678 -0.810286 0.585461 0.0259273 10 10 10
-2.2729 -0.979857 -9.86599 -0.943989 0.0518282 0.325882 10 10 10
-1.33686 -1.09141 -9.08538 -0.768037 0.0125172 0.640284 19 19 19
-1.33856 -1.07321 -9.11611 -0.999946 -0.00711531 0.00754753 7 7 7
-1.33613 -1.0922 -9.14771 -0.763241 0.000487407 0.646114 9 9 9
-1.33691 -1.0557 -9.08549 -0.767818 0.00865509 0.640609 20 20 20
-1.33621 -1.05587 -9.08552 -0.767296 0.0142032 0.641136 20 20 20
-1.34518 -1.05428 -9.14599 -0.996649 0.0254947 0.077726 6 6 6
-1.33841 -1.03751 -9.11599 -0.99997 0.00341624 -0.00694823 7 7 7
-1.36137 -1.01506 -9.14869 -0.988887 -0.0116037 0.148212 6 6 6
-3.21707 -0.728132 -10.6958 -0.605173 -0.691097 0.39516 6 6 6
-3.2288 -0.701911 -10.646 -0.752868 -0.588994 0.293727 0 0 0
-2.94721 -0.723477 -10.4727 -0.99687 0.0761255 -0.0213231 2 2 2
-2.16276 -0.787296 -9.8182 -0.61157 0.700687 0.367451 13 13 13
-2.43189 -0.770988 -10.0881 -0.391149 0.634108 0.667015 17 17 17
-2.86764 -0.686913 -10.3088 -0.672796 -0.712778 0.198225 0 0 0
-2.83682 -0.712993 -10.3603 -0.633006 -0.719763 0.285035 0 0 0
-1.39885 -0.821906 -9.14987 -0.737453 0.0522886 0.673371 9 9 9
-1.20872 -0.793252 -8.92533 -0.41146 0.910877 0.0316909 7 7 7
-1.04205 -0.78225 -8.72629 -0.464598 0.874223 0.141005 8 8 8
-1.0795 -0.770837 -8.79738 -0.42277 0.895244 0.140724 8 8 8
-0.728578 -0.782474 -8.43955 -0.791759 0.608513 -0.0531821 5 5 5
-0.798219 -0.785946 -8.49932 -0.597419 0.773984 0.209855 6 6 6
-0.908308 -0.775726 -8.69674 -0.470509 0.872356 0.132727 8 8 8
-0.935062 -0.781219 -8.70398 -0.565741 0.811347 0.14715 6 6 6
-0.965506 -0.75644 -8.75577 -0.570717 0.820365 0.0358342 7 7 7
-0.960542 -0.78548 -8.7961 -0.41522 0.899589 0.135398 8 8 8
-0.508614 -0.779437 -8.37216 -0.459492 0.885151 0.0733113 7 7 7
-0.668318 -0.762636 -8.47299 -0.458151 0.869551 0.184333 7 7 7
-0.744386 -0.767844 -8.52924 -0.727958 0.652684 0.209954 5 5 5
-0.717326 -0.745722 -8.56674 -0.383426 0.915591 -0.121148 9 9 9
-1.02768 -0.74125 -8.82675 -0.383204 0.913125 -0.139132 11 11 11
-0.651235 -0.738904 -8.51343 -0.39411 0.912619 -0.108647 13 13 13
-1.60937 -0.567685 -9.48265 -0.732801 0.0437761 0.679033 0 0 0
-1.61475 -0.366437 -9.51966 -0.822378 0.065865 0.565117 0 0 0
-1.73692 -0.0820936 -9.84897 -0.93882 0.264839 0.220174 0 0 0
-1.70257 -0.0816199 -9.95901 -0.551574 0.795555 0.250716 0 0 0
-1.809 -0.0979357 -10.0701 -0.703984 0.628086 -0.331534 0 0 0
-1.57324 -0.0423384 -10.1975 -0.760007 0.387996 -0.521391 1 1 1
-1.58089 -0.00922945 -9.64974 -0.971056 0.184699 0.151451 1 1 1
-1.48885 0.0118609 -10.9298 -0.966644 0.252494 0.0429697 0 0 0
-1.53659 0.0510785 -10.4867 -0.636873 0.766507 0.0828249 14 14 14
-1.55558 0.0328107 -10.4656 -0.84064 -0.116469 0.528923 0 0 0
-1.50736 0.0411203 -10.7805 -0.941939 0.081562 -0.325727 2 2 2
-1.50527 0.0700142 -10.4858 -0.610331 0.78399 0.113383 41 41 41
-1.87123 0.0730541 -10.6231 -0.966507 0.256639 0.000825524 43 43 43
-1.45183 0.0952186 -10.8887 -0.977747 0.00298333 -0.209766 1 1 1
-1.49224 0.0774141 -10.9086 -0.976078 0.0658064 -0.207221 0 0 0
-1.98845 0.0898618 -9.88687 -0.528806 0.408667 0.743878 68 68 68
-2.01982 0.100423 -9.9169 -0.559445 0.266737 0.784775 50 50 50
-1.6166 0.127816 -10.6337 -0.877465 0.00497228 -0.479615 40 40 40
-1.45162 0.129562 -10.8888 -0.970519 -0.0111176 -0.240769 1 1 1
-1.4548 0.112233 -10.9157 -0.873056 0.00764539 -0.48756 0 0 0
-1.44178 0.109357 -10.9264 -0.887483 0.0221308 -0.460309 0 0 0
-1.95909 0.137099 -9.87194 -0.564973 0.807932 0.167485 85 85 85
-1.91126 0.123246 -10.2653 -0.742062 -0.649022 -0.167674 45 45 45
-1.91126 0.123246 -10.2653 -0.742062 -0.649022 -0.167674 45 45 45
-1.47118 0.164878 -10.8273 -0.945261 -0.071549 -0.318376 44 44 44
-1.46441 0.163548 -10.8868 -0.96592 -0.0541461 0.253115 0 0 0
-1.46447 0.163 -10.8871 -0.965787 -0.0619435 0.251828 0 0 0
-1.51948 0.161968 -10.9435 -0.52235 -0.851074 0.0531498 0 0 0
-1.47111 0.162918 -10.944 -0.91131 -0.0888497 -0.402019 0 0 0
-1.93454 0.16838 -9.87144 -0.576188 0.805737 0.137095 101 101 101
-1.84863 0.164605 -10.3829 -0.968761 0.105653 -0.224363 38 38 38
-1.84722 0.167284 -10.3841 -0.951777 0.0948875 -0.291749 38 38 38
-1.45835 0.19854 -10.8295 -0.99951 0.010857 -0.0293589 42 42 42
-1.45856 0.198305 -10.8291 -0.999573 0.0108172 -0.0271372 42 42 42
-1.4657 0.197937 -10.8868 -0.959894 0.00551757 0.28031 0 0 0
-1.46706 0.197821 -10.887 -0.945053 -0.000755326 0.326915 0 0 0
-1.84588 0.195631 -10.3823 -0.968529 -0.0823756 -0.234874 44 44 44
-1.84729 0.198187 -10.3841 -0.973321 0.00283786 -0.229431 45 45 45
-1.85884 0.203051 -10.3532 -0.9141 -0.125112 -0.385705 45 45 45
-1.85708 0.206819 -10.3537 -0.879557 -0.13642 -0.455816 45 45 45
-1.63162 0.221632 -10.631 -0.867755 -0.0290192 -0.496144 47 47 47
-1.57646 0.216483 -10.692 -0.855944 -0.104763 -0.506344 41 41 41
-1.45753 0.215123 -10.8581 -0.99753 0.0137462 -0.0688883 31 31 31
-1.45844 0.232761 -10.8293 -0.999864 0.00343095 -0.0161258 46 46 46
-1.45721 0.215058 -10.8583 -0.998571 0.00383237 0.0533068 30 30 30
-1.46512 0.232427 -10.8869 -0.959471 0.00394682 0.281778 0 0 0
-1.46447 0.232349 -10.8871 -0.964165 0.00642082 0.265227 0 0 0
-1.30384 0.260897 -9.26132 -0.870042 -0.024692 -0.492359 0 0 0
-1.94233 0.242764 -10.256 -0.922955 -0.0385268 -0.382975 52 52 52
-1.8483 0.229496 -10.3846 -0.926567 -0.20154 -0.317576 57 57 57
-1.84871 0.226548 -10.3827 -0.942725 -0.196335 -0.269672 56 56 56
-1.86586 0.238093 -10.3536 -0.886059 -0.266374 -0.3794 51 51 51
-1.65199 0.238878 -10.6049 -0.861757 0.0432631 -0.505473 58 58 58
-1.4572 0.249621 -10.8581 -0.996507 0.00160875 0.0834922 31 31 31
-1.85196 0.257372 -10.3826 -0.964198 -0.0846072 -0.251323 57 57 57
-1.83773 0.275739 -10.4103 -0.951148 0.0449418 -0.305448 50 50 50
-1.83559 0.27357 -10.4087 -0.902937 0.163295 -0.397541 50 50 50
-1.85047 0.260491 -10.3845 -0.962945 -0.0314417 -0.267861 57 57 57
-1.48916 0.280425 -10.7997 -0.896261 -0.00606689 -0.443486 47 47 47
-1.48938 0.280065 -10.7997 -0.893544 -0.00308469 -0.448964 47 47 47
-1.47364 0.299399 -10.8284 -0.884201 -0.0110297 -0.466977 51 51 51
-1.85204 0.289622 -10.3825 -0.915139 0.020011 -0.40264 50 50 50
-1.83726 0.306959 -10.4084 -0.977712 0.0330488 -0.207333 49 49 49
-1.85077 0.292706 -10.3854 -0.91338 0.0795255 -0.399265 50 50 50
-1.4922 0.317355 -10.7997 -0.879093 -0.033847 -0.475447 59 59 59
-1.50991 0.335333 -10.7712 -0.860461 -0.104907 -0.498599 48 48 48
-1.47749 0.33714 -10.8284 -0.872129 -0.0476723 -0.486949 45 45 45
-1.86444 0.341388 -10.3579 -0.842104 0.105704 -0.528854 59 59 59
-1.84818 0.322431 -10.3831 -0.903037 -0.0665839 -0.42437 70 70 70
-1.84717 0.325397 -10.3849 -0.908939 -0.0544024 -0.413365 71 71 71
-1.8391 0.339786 -10.4088 -0.898683 0.0388729 -0.436873 55 55 55
-1.83799 0.321975 -10.4314 -0.998831 -0.0286847 0.0389046 47 47 47
-1.49575 0.355099 -10.7997 -0.859619 -0.0949275 -0.502039 51 51 51
-2.01166 0.333958 -9.92445 -0.671323 0.0210596 0.740866 107 107 107
-1.85882 0.374915 -10.3584 -0.884117 -0.0142175 -0.467048 52 52 52
-1.84743 0.358423 -10.3835 -0.882872 0.117582 -0.454656 56 56 56
-1.83006 0.376408 -10.4095 -0.855111 0.0386793 -0.517 52 52 52
-1.49768 0.393769 -10.7997 -0.861285 -0.00517013 -0.508096 74 74 74
-1.46256 0.41915 -10.8599 -0.917171 0.0424257 -0.396228 28 28 28
-1.85219 0.39108 -10.3832 -0.901134 -0.0608851 -0.429243 57 57 57
-1.83219 0.410488 -10.4098 -0.874263 -0.0305427 -0.484491 49 49 49
-1.48584 0.439223 -10.9454 -0.998811 -0.0424176 0.0240206 0 0 0
-1.40973 0.433642 -9.45602 -0.620643 -0.677458 -0.394784 85 85 85
-1.62213 0.462222 -10.6322 -0.838226 -0.177221 -0.515723 44 44 44
-2.04412 0.432552 -10.1381 -0.859832 -0.107079 -0.499222 54 54 54
-1.94251 0.4594 -10.2557 -0.826655 -0.0582084 -0.55969 75 75 75
-1.84707 0.458293 -10.3867 -0.890802 0.106752 -0.441674 61 61 61
-1.8597 0.44334 -10.3608 -0.864074 0.0358686 -0.502085 62 62 62
-1.50753 0.504916 -10.7746 -0.861425 0.00950551 -0.507796 50 50 50
-1.45772 0.525584 -10.9168 -0.883481 0.00901461 -0.46838 0 0 0
-2.00318 0.469726 -10.185 -0.829032 -0.0465647 -0.557259 67 67 67
-1.94071 0.492404 -10.2558 -0.87365 -0.0162292 -0.486284 65 65 65
-1.84535 0.491846 -10.387 -0.885948 -0.0256324 -0.463076 72 72 72
-1.85843 0.474799 -10.3614 -0.842892 -0.106137 -0.527511 67 67 67
-1.50789 0.554279 -10.78 -0.860532 -0.00106801 -0.509396 62 62 62
-1.45218 0.543215 -10.8892 -0.9532 0.0417223 -0.299449 1 1 1
-1.46273 0.561166 -10.8594 -0.866121 0.0944367 -0.490832 30 30 30
-1.45759 0.558809 -10.9157 -0.868916 0.0153012 -0.494723 0 0 0
-1.94054 0.495101 -10.2552 -0.872493 -0.120689 -0.473487 64 64 64
-1.85265 0.510053 -10.3599 -0.909824 0.0489971 -0.412092 95 95 95
-1.47672 0.582665 -10.8298 -0.865316 0.103796 -0.490361 46 46 46
-1.45169 0.578672 -10.889 -0.87122 0.0790211 -0.484491 2 2 2
-1.46215 0.593254 -10.9134 -0.884556 0.0116588 -0.466288 2 2 2
-1.94692 0.52816 -10.2528 -0.858958 -0.119446 -0.49792 51 51 51
-1.92953 0.546021 -10.2792 -0.886762 -0.0713295 -0.456689 63 63 63
-1.87182 0.536814 -10.3529 -0.828524 -0.198117 -0.523734 62 62 62
-1.83074 0.543997 -10.4131 -0.983765 -0.0744537 -0.163289 49 49 49
-1.74898 0.571684 -10.5272 -0.977289 0.211902 0.00215247 48 48 48
-1.47991 0.620719 -10.8284 -0.89239 -0.050144 -0.448471 46 46 46
-1.45626 0.616883 -10.8875 -0.866413 0.0175378 -0.49902 3 3 3
-1.87931 0.570075 -10.353 -0.817433 -0.156937 -0.554233 53 53 53
-1.85111 0.603943 -10.4161 -0.867362 -0.449164 -0.214325 65 65 65
-1.83556 0.574796 -10.4161 -0.85866 -0.446708 -0.251307 46 46 46
-1.82486 0.593927 -10.4453 -0.971438 -0.0931348 -0.218255 52 52 52
-1.7431 0.604885 -10.5244 -0.895523 0.382558 -0.227348 62 62 62
-1.69447 0.618138 -10.609 -0.856405 0.0608346 -0.512708 46 46 46
-1.4802 0.658266 -10.8287 -0.911938 -0.101161 -0.397662 74 74 74
-1.47479 0.639071 -10.8558 -0.94203 -0.0395951 -0.333184 36 36 36
-1.4599 0.660325 -10.8863 -0.850723 -0.138052 -0.507161 10 10 10
-1.44463 0.669447 -10.9317 -0.859862 -0.0896936 -0.502586 10 10 10
-2.06616 0.584263 -10.1126 -0.86431 0.0882171 -0.495162 47 47 47
-2.06863 0.582644 -10.1152 -0.870903 -0.0487277 -0.489033 47 47 47
-1.91681 0.596235 -10.2955 -0.913942 -0.0371367 -0.404143 47 47 47
-1.87575 0.600669 -10.3528 -0.78729 -0.411508 -0.459168 52 52 52
-1.90347 0.612578 -10.3737 -0.979859 -0.154776 0.126176 88 88 88
-1.86868 0.633434 -10.4124 -0.959521 -0.142118 -0.243151 86 86 86
-1.71287 0.636547 -10.5808 -0.861532 0.0386819 -0.506227 50 50 50
-1.59253 0.674708 -10.6734 -0.87574 -0.244987 -0.416007 84 84 84
-1.4823 0.694658 -10.829 -0.916696 -0.0853553 -0.390363 63 63 63
-1.4765 0.67675 -10.8563 -0.938025 -0.0624259 -0.340898 36 36 36
-1.47863 0.704198 -10.9207 -0.903187 -0.0262521 -0.428445 9 9 9
-2.04686 0.603191 -10.1372 -0.84184 -0.0827236 -0.533351 47 47 47
-2.03481 0.620537 -10.1614 -0.884834 0.0390464 -0.464267 47 47 47
-1.90403 0.629522 -10.2965 -0.947714 -0.0303309 -0.317675 47 47 47
-1.90997 0.643018 -10.3719 -0.996774 -0.0101163 0.0796146 95 95 95
-1.507 0.722611 -10.7852 -0.919395 -0.041328 -0.391159 45 45 45
-1.50322 0.724563 -10.7854 -0.946161 -0.0276774 -0.322511 45 45 45
-1.47569 0.726425 -10.8448 -0.958847 -0.0587724 -0.277772 45 45 45
-1.45635 0.727233 -10.9034 -0.941399 0.00025436 -0.337295 3 3 3
-1.80319 0.672779 -9.72679 -0.734684 -0.13911 0.663994 87 87 87
-2.01352 0.641873 -10.1809 -0.832679 -0.0543764 -0.551079 50 50 50
-1.93547 0.670988 -10.2671 -0.925425 -0.194543 -0.325179 59 59 59
-1.90975 0.659397 -10.3448 -0.736957 -0.0160094 0.67575 73 73 73
-1.9108 0.674928 -10.3719 -0.986459 -0.0221507 0.162508 96 96 96
-1.72295 0.69789 -10.5496 -0.866387 0.000353535 -0.499373 71 71 71
-1.73817 0.709982 -10.5182 -0.889232 -0.0642019 -0.452928 93 93 93
-1.70748 0.715814 -10.5765 -0.850334 -0.00269615 -0.526236 53 53 53
-1.61879 0.726218 -10.6465 -0.873789 0.0345713 -0.485075 44 44 44
-1.50562 0.759936 -10.7853 -0.940931 0.0185045 -0.338093 61 61 61
-1.47356 0.762905 -10.8455 -0.938122 -0.0402175 -0.343962 48 48 48
-1.4854 0.744187 -10.8159 -0.941197 -0.0522264 -0.333796 59 59 59
-1.48946 0.742697 -10.815 -0.895235 -0.0497299 -0.442811 58 58 58
-1.46052 0.745169 -10.8752 -0.955498 -0.0600345 -0.288825 11 11 11
-1.45386 0.766583 -10.9075 -0.917737 -0.00432753 -0.397164 0 0 0
-1.91729 0.70397 -10.3172 -0.884337 -0.00548008 -0.466817 54 54 54
-1.91891 0.704209 -10.3167 -0.876997 0.0127676 -0.480326 54 54 54
-1.91387 0.704079 -10.3157 -0.89198 -0.0548248 -0.448739 55 55 55
-1.92481 0.688234 -10.2923 -0.888337 -0.0803739 -0.452103 63 63 63
-1.92625 0.688775 -10.2917 -0.872404 -0.0843251 -0.481457 64 64 64
-1.90949 0.719798 -10.3425 -0.989584 -0.0173055 -0.142914 75 75 75
-1.90913 0.69104 -10.3449 -0.999198 -0.0328374 -0.0229211 80 80 80
-1.73805 0.745084 -10.5182 -0.886504 0.00276542 -0.462714 95 95 95
-1.72668 0.732306 -10.5475 -0.889903 0.0817257 -0.448769 74 74 74
-1.48551 0.806502 -10.7957 -0.926979 0.0545713 -0.371122 64 64 64
-1.47494 0.799354 -10.8444 -0.922809 -0.00432455 -0.385234 48 48 48
-1.48566 0.779973 -10.8162 -0.935397 -0.0222308 -0.3529 67 67 67
-1.45684 0.782321 -10.876 -0.934852 -0.0202257 -0.354461 8 8 8
-1.46967 0.800744 -10.9045 -0.886456 -0.0131913 0.462624 0 0 0
-1.44681 0.784397 -10.936 -0.913892 -0.0297955 -0.404862 0 0 0
-1.94392 0.734529 -10.2644 -0.899411 0.121891 -0.419765 71 71 71
-1.91614 0.736863 -10.3168 -0.925589 0.0273576 -0.377541 59 59 59
-1.91758 0.736643 -10.3171 -0.903528 0.0440414 -0.42626 59 59 59
-1.92564 0.721256 -10.2909 -0.903455 -0.0248945 -0.427959 82 82 82
-1.9099 0.722561 -10.3449 -0.997801 -0.0233502 -0.0620386 79 79 79
-1.91195 0.737949 -10.3722 -0.993299 0.0237842 0.113099 97 97 97
-1.88519 0.738405 -10.3853 -0.898457 0.015975 -0.43877 100 100 100
-1.73428 0.766159 -10.4961 -0.860784 -0.0204581 -0.508558 97 97 97
-1.79899 0.775175 -10.455 -0.869971 -0.0548494 -0.490044 76 76 76
-1.79899 0.775175 -10.455 -0.869971 -0.0548494 -0.490044 76 76 76
-1.87903 0.753671 -10.4093 -0.882237 -0.0429675 -0.468841 76 76 76
-1.79899 0.775175 -10.455 -0.869971 -0.0548494 -0.490044 76 76 76
-1.7373 0.780267 -10.518 -0.889725 0.0333949 -0.455274 95 95 95
-1.73086 0.76095 -10.5431 -0.998951 0.0243381 -0.0387909 78 78 78
-1.72952 0.765785 -10.5454 -0.92329 0.101478 -0.370456 74 74 74
-1.70642 0.783207 -10.5772 -0.853144 0.0200261 -0.521291 56 56 56
-1.70764 0.781061 -10.5768 -0.850836 -0.00563489 -0.525402 55 55 55
-1.45056 0.842948 -10.8468 -0.862346 -0.0398972 0.504744 47 47 47
-1.45929 0.818285 -10.8754 -0.964363 0.00921467 -0.264423 8 8 8
-1.47032 0.837607 -10.9044 -0.877984 0.00574797 0.478655 0 0 0
-1.44074 0.823189 -10.9375 -0.93936 5.13472e-005 -0.342934 0 0 0
-1.91504 0.769175 -10.3172 -0.934239 0.0145511 -0.356351 60 60 60
-1.91538 0.769064 -10.3168 -0.935484 0.0117714 -0.353174 61 61 61
-1.92739 0.751936 -10.2903 -0.909183 0.0610211 -0.4119 98 98 98
-1.9273 0.752875 -10.291 -0.90929 0.0560623 -0.412369 99 99 99
-1.92765 0.752728 -10.2906 -0.905409 0.0656086 -0.419439 99 99 99
-1.91089 0.75409 -10.3448 -0.999395 0.0273209 -0.021514 78 78 78
-1.90905 0.770137 -10.3724 -0.999486 -0.00490973 0.0316724 94 94 94
-1.73583 0.815796 -10.518 -0.886409 0.0354414 -0.461543 96 96 96
-1.72676 0.796682 -10.5439 -0.955069 0.129471 -0.26661 77 77 77
-1.72736 0.799847 -10.5443 -0.928412 0.152919 -0.338625 77 77 77
-1.48669 0.844855 -10.7835 -0.996087 -0.0720367 0.0512086 63 63 63
-1.46851 0.881283 -10.8443 -0.986664 -0.00910288 -0.162517 48 48 48
-1.48021 0.862647 -10.8134 -0.982363 -0.0485829 -0.180562 51 51 51
-1.48182 0.853895 -10.811 -0.982543 -0.0418445 -0.181268 56 56 56
-1.47432 0.861854 -10.8721 -0.752934 -0.00698948 0.658059 10 10 10
-1.46018 0.855139 -10.8752 -0.967121 -0.00760506 -0.254204 8 8 8
-1.47061 0.874644 -10.9043 -0.877141 0.00395707 0.480216 0 0 0
-1.44475 0.8593 -10.9367 -0.93768 0.00760856 -0.347416 0 0 0
-2.01379 0.770792 -9.92006 -0.697375 0.0163162 0.716521 100 100 100
-1.91497 0.800967 -10.3169 -0.950654 0.00308061 -0.310238 60 60 60
-1.92748 0.784363 -10.2904 -0.915981 -0.0165624 -0.40088 105 105 105
-1.912 0.78557 -10.3448 -0.999159 -0.0407328 0.00464895 78 78 78
-1.91092 0.801628 -10.3725 -0.997544 -0.00938487 0.0694053 97 97 97
-1.88771 0.817574 -10.387 -0.914814 0.0114337 -0.403714 103 103 103
-1.73647 0.850876 -10.5182 -0.891368 -0.0347594 -0.451946 93 93 93
-1.72433 0.833521 -10.5446 -0.988431 0.0623797 0.138249 78 78 78
-1.49124 0.895244 -10.8116 -0.888919 -0.0208195 -0.457591 54 54 54
-1.4635 0.898682 -10.874 -0.985759 0.00494175 -0.168093 9 9 9
-1.46857 0.911587 -10.9047 -0.904482 -0.00594208 0.42647 0 0 0
-1.44455 0.8963 -10.9367 -0.937305 0.00172185 -0.348506 0 0 0
-1.91473 0.837542 -10.3187 -0.899868 0.015319 -0.435893 57 57 57
-1.91258 0.837405 -10.32 -0.919157 0.0136998 -0.393654 56 56 56
-1.92685 0.82127 -10.2928 -0.89798 -0.0296387 -0.439037 101 101 101
-1.92518 0.820969 -10.2939 -0.91195 -0.010897 -0.410156 100 100 100
-1.91097 0.817566 -10.3448 -0.999592 0.0276146 -0.00726718 79 79 79
-1.91204 0.833094 -10.3723 -0.99757 0.0212766 0.0663405 96 96 96
-1.7378 0.886182 -10.5187 -0.880993 -0.0706215 -0.467829 93 93 93
-1.49213 0.93339 -10.8116 -0.889937 -0.00686157 -0.456032 60 60 60
-1.46449 0.932931 -10.8739 -0.999411 -0.00412622 -0.0340682 9 9 9
-1.47074 0.947715 -10.9042 -0.920601 0.0111016 0.390346 0 0 0
-1.44407 0.933478 -10.9367 -0.945071 -0.00396608 -0.326842 0 0 0
-1.93892 0.838459 -10.2669 -0.915628 -0.0122501 -0.40184 95 95 95
-1.91347 0.871033 -10.3187 -0.898895 0.0400107 -0.436334 51 51 51
-1.92577 0.854618 -10.2929 -0.894103 0.0330624 -0.446639 70 70 70
-1.90144 0.853595 -10.3455 -0.868044 0.0134526 -0.496305 79 79 79
-1.89337 0.868398 -10.3718 -0.906892 0.019197 -0.420925 96 96 96
-1.89484 0.883938 -10.3942 -0.926564 -0.0506601 -0.372711 99 99 99
-1.72204 0.905126 -10.5463 -0.911017 -0.0175334 -0.411996 77 77 77
-1.48636 0.960655 -10.8105 -0.898559 0.0774706 -0.43196 64 64 64
-1.46619 0.987317 -10.8419 -0.959094 0.167082 -0.228521 48 48 48
-1.45923 0.96921 -10.8741 -0.976853 0.110612 -0.183093 9 9 9
-1.45728 0.985374 -10.9043 -0.980906 0.158915 -0.112112 0 0 0
-1.45812 0.966452 -10.9358 -0.829634 -0.555319 -0.0576842 0 0 0
-2.03847 0.867126 -10.1572 -0.836929 -0.253765 -0.484925 54 54 54
-1.93939 0.870862 -10.2669 -0.89948 0.0913662 -0.427304 56 56 56
-1.90619 0.904163 -10.3192 -0.940178 -0.0258529 -0.339703 50 50 50
-1.92413 0.88597 -10.2923 -0.874256 0.0276512 -0.484677 59 59 59
-1.90046 0.886813 -10.3454 -0.912382 0.0773878 -0.401958 78 78 78
-1.89325 0.902439 -10.3716 -0.92794 -0.0345965 -0.37112 94 94 94
-1.73611 0.942107 -10.4967 -0.867899 -0.00254441 -0.496734 99 99 99
-1.80157 0.913597 -10.4547 -0.836253 -0.111787 -0.536828 77 77 77
-1.80157 0.913597 -10.4547 -0.836253 -0.111787 -0.536828 77 77 77
-1.80157 0.913597 -10.4547 -0.836253 -0.111787 -0.536828 77 77 77
-1.72341 0.939746 -10.5468 -0.91066 -0.0838166 -0.404565 76 76 76
-1.73851 0.921345 -10.519 -0.893929 -0.0408295 -0.446345 92 92 92
-1.46341 1.02314 -10.8414 -0.97612 0.0966731 -0.194536 45 45 45
-1.48313 1.00318 -10.8086 -0.917488 0.146084 -0.369967 48 48 48
-1.48394 1.00415 -10.808 -0.898474 0.175651 -0.402357 47 47 47
-1.45425 1.00553 -10.874 -0.974912 0.144224 -0.169545 11 11 11
-1.46792 1.02898 -10.9048 -0.847766 0.221311 0.481989 0 0 0
-2.05071 0.879706 -10.133 -0.857751 -0.102817 -0.503677 50 50 50
-1.93609 0.904351 -10.2669 -0.895707 0.0910424 -0.435225 48 48 48
-1.90829 0.937208 -10.319 -0.896276 0.0195979 -0.443064 50 50 50
-1.92058 0.920839 -10.2929 -0.885215 -0.00377335 -0.465168 64 64 64
-1.89958 0.919662 -10.3454 -0.934334 0.0100965 -0.356255 80 80 80
-1.8948 0.916696 -10.3945 -0.922791 -0.0713035 -0.378645 98 98 98
-1.73975 0.978383 -10.4957 -0.898528 -0.050302 -0.436023 96 96 96
-1.80888 0.94795 -10.4516 -0.838244 -0.101462 -0.535774 78 78 78
-1.80888 0.94795 -10.4516 -0.838244 -0.101462 -0.535774 78 78 78
-1.80888 0.94795 -10.4516 -0.838244 -0.101462 -0.535774 78 78 78
-1.73955 0.956602 -10.5189 -0.892702 -0.0246624 -0.449972 94 94 94
-1.47309 1.05623 -10.8917 -0.557754 0.228394 0.797964 0 0 0
-1.46836 1.04448 -10.9347 -0.971099 0.143123 -0.191003 0 0 0
-1.96684 0.932209 -10.2142 -0.815304 -0.140024 -0.561848 48 48 48
-1.93533 0.937596 -10.2648 -0.882644 -0.088466 -0.461643 66 66 66
-1.92112 0.954741 -10.2918 -0.874827 -0.00517965 -0.484408 71 71 71
-1.89822 0.953135 -10.3455 -0.917698 0.0290554 -0.396214 79 79 79
-1.84495 0.968532 -10.4297 -0.996077 0.00853157 0.0880788 97 97 97
-1.76202 0.998145 -10.4763 -0.850759 0.0283501 -0.524791 95 95 95
-1.73934 0.992832 -10.5187 -0.875552 0.0229901 -0.482577 94 94 94
-1.93746 0.97133 -10.2648 -0.866238 -0.022639 -0.499118 43 43 43
-1.90658 0.971959 -10.3184 -0.919227 0.00435105 -0.393705 51 51 51
-1.92105 0.98895 -10.2907 -0.866668 -0.00323129 -0.498875 45 45 45
-1.91969 0.98816 -10.2919 -0.891267 0.0242857 -0.452829 46 46 46
-1.89507 0.987297 -10.3454 -0.907401 0.0930374 -0.409839 79 79 79
-1.88202 1.00371 -10.3726 -0.923248 0.0572795 -0.379911 93 93 93
-1.86122 0.988529 -10.4008 -0.857943 0.147281 -0.49218 101 101 101
-1.76414 1.03444 -10.4779 -0.834595 -0.177221 -0.521579 58 58 58
-1.83966 0.999037 -10.4297 -0.971882 0.223512 0.0740748 97 97 97
-1.45167 1.13788 -10.9026 -0.972069 -0.0540292 -0.228392 1 1 1
-1.97776 1.0027 -10.2141 -0.813374 -0.186011 -0.551202 48 48 48
-1.90392 1.00602 -10.3184 -0.932305 0.0844887 -0.351666 47 47 47
-1.90459 1.00554 -10.3186 -0.935321 0.0544876 -0.34958 47 47 47
-1.74397 1.05726 -10.5068 -0.819227 -0.166722 -0.548699 57 57 57
-1.45356 1.17471 -10.902 -0.966558 -0.121925 -0.225611 7 7 7
-1.46901 1.17838 -10.9657 -0.960542 0.0811051 0.266048 0 0 0
-1.30109 1.10341 -9.29752 -0.900159 0.108108 -0.421932 47 47 47
-1.95985 1.02239 -10.2386 -0.884387 -0.174121 -0.433061 47 47 47
-1.45803 1.21086 -10.901 -0.898818 -0.161556 -0.407463 18 18 18
-1.955 1.05689 -10.2392 -0.769632 -0.341817 -0.539284 45 45 45
-1.83635 1.11025 -10.4016 -0.805683 -0.21835 -0.550635 67 67 67
-1.4609 1.21268 -10.8979 -0.943147 -0.143898 -0.299613 25 25 25
-2.04488 1.07742 -10.1528 -0.887993 -0.0697839 -0.454531 61 61 61
-2.05746 1.05792 -10.1279 -0.909877 -0.0564609 -0.411019 65 65 65
-1.89676 1.10631 -10.339 -0.844118 -0.17428 -0.507041 63 63 63
-1.84472 1.14509 -10.4017 -0.833639 -0.118071 -0.539541 61 61 61
-1.4573 1.25001 -10.8992 -0.973562 -0.0793258 -0.214205 37 37 37
-1.4626 1.24704 -10.8993 -0.873178 -0.133693 -0.468707 35 35 35
-2.0482 1.11012 -10.1528 -0.864981 -0.104183 -0.49087 83 83 83
-2.065 1.0909 -10.1279 -0.800501 -0.143924 -0.581793 93 93 93
-1.7435 1.19465 -10.5342 -0.828764 -0.221826 -0.513755 67 67 67
-1.73875 1.19507 -10.5342 -0.804666 -0.258526 -0.534488 67 67 67
-1.72964 1.21678 -10.5616 -0.82957 -0.186895 -0.526198 30 30 30
-1.48084 1.31186 -10.9938 -0.897147 0.195067 -0.396327 0 0 0
-2.11309 1.11621 -10.0801 -0.770427 -0.267734 -0.578585 74 74 74
-2.08966 1.10735 -10.1035 -0.761949 -0.304685 -0.571489 88 88 88
-2.02768 1.14728 -10.204 -0.948272 -0.0760887 -0.308205 55 55 55
-1.75273 1.23039 -10.5341 -0.845158 -0.21031 -0.491404 54 54 54
-1.7528 1.22948 -10.5339 -0.844671 -0.221163 -0.487461 54 54 54
-1.75251 1.2299 -10.5342 -0.843649 -0.215133 -0.491909 54 54 54
-1.73998 1.25221 -10.5613 -0.831435 -0.18759 -0.522997 41 41 41
-1.57096 1.30983 -10.7729 -0.832303 -0.221729 -0.508044 55 55 55
-1.46025 1.36144 -11.0255 -0.741688 -0.032661 0.669949 0 0 0
-2.03868 1.16179 -10.1781 -0.891515 -0.141025 -0.430479 63 63 63
-2.05154 1.14309 -10.1528 -0.858586 -0.0928957 -0.504183 96 96 96
-2.03079 1.1787 -10.204 -0.942169 -0.112528 -0.315682 47 47 47
-1.76205 1.26508 -10.534 -0.838706 -0.223199 -0.496743 39 39 39
-1.45781 1.38374 -10.933 -0.951451 -0.00269007 -0.307787 27 27 27
-1.4496 1.36415 -10.964 -0.952165 -0.0330924 -0.303788 0 0 0
-1.43705 1.38431 -10.9959 -0.908147 0.0304107 -0.417546 0 0 0
-1.46224 1.38073 -10.9937 -0.98699 0.00362898 -0.160738 0 0 0
-1.43094 1.4098 -11.026 -0.87538 0.455187 -0.162833 0 0 0
-1.40158 1.39346 -11.0689 -0.943257 0.324769 -0.0692224 0 0 0
-2.11485 1.17673 -10.0987 -0.762975 -0.329059 -0.556407 101 101 101
-2.04017 1.1936 -10.1781 -0.945201 -0.105033 -0.309134 82 82 82
-2.03031 1.20989 -10.206 -0.89896 -0.114021 -0.42293 55 55 55
-2.03162 1.21071 -10.2041 -0.846821 -0.18169 -0.499883 54 54 54
-1.87498 1.24568 -10.3984 -0.816153 -0.156712 -0.556179 45 45 45
-1.47428 1.40386 -10.9017 -0.889728 -0.00853181 -0.456412 51 51 51
-1.4634 1.42287 -10.932 -0.960617 -0.0618694 -0.270902 45 45 45
-1.45271 1.40513 -10.963 -0.95656 -0.0234191 -0.290593 3 3 3
-1.46516 1.41781 -10.9936 -0.999479 -0.0298913 -0.0122066 0 0 0
-1.42367 1.42654 -11.0651 -0.906646 -0.408935 -0.103753 0 0 0
-1.86627 1.304 -10.425 -0.812385 -0.215414 -0.541873 57 57 57
-1.45752 1.44146 -10.9629 -0.918149 -0.189167 -0.348164 2 2 2
-1.47856 1.45337 -10.9924 -0.911671 -0.0375108 0.409205 0 0 0
-2.03388 1.24243 -10.2059 -0.899617 -0.029992 -0.435648 66 66 66
-1.89455 1.31481 -10.3981 -0.791608 -0.270276 -0.548003 58 58 58
-1.90383 1.29271 -10.3723 -0.780255 -0.310372 -0.54302 64 64 64
-1.51432 1.45937 -10.8235 -0.958319 0.260242 -0.11789 34 34 34
-1.46508 1.47825 -10.9629 -0.87926 -0.231146 -0.416501 0 0 0
-1.49756 1.48902 -10.9297 -0.765195 -0.374777 0.523468 0 0 0
-2.0361 1.27411 -10.2057 -0.876659 -0.0641642 -0.476815 92 92 92
-1.50362 1.49928 -10.8243 -0.977798 0.162264 -0.132593 2 2 2
-1.48846 1.51397 -10.8472 -0.969101 0.030628 -0.244757 0 0 0
-1.50055 1.48863 -10.8755 -0.808845 -0.420434 -0.411103 0 0 0
-1.96184 1.35481 -10.3299 -0.888728 -0.190836 -0.416827 53 53 53
-1.97209 1.33836 -10.3044 -0.86117 -0.195285 -0.469307 65 65 65
-1.50652 1.52978 -10.8135 -0.997821 -0.0556469 -0.0354519 9 9 9
-2.05654 1.33911 -10.2052 -0.749396 -0.332155 -0.572782 63 63 63
-1.8709 1.41909 -10.4257 -0.90143 0.23229 -0.365329 65 65 65
-1.75899 1.4784 -10.5085 -0.880984 0.469353 0.0597946 49 49 49
-1.73487 1.49174 -10.5458 -0.970123 0.191066 -0.149514 40 40 40
-1.51358 1.59394 -10.785 -0.901988 0.00522638 -0.431729 75 75 75
-1.49945 1.61334 -10.8172 -0.899825 0.0298011 -0.435232 5 5 5
-1.47524 1.47631 -9.2721 -0.22614 -0.972948 -0.0472619 0 0 0
-2.12534 1.37285 -10.1325 -0.826843 -0.253217 -0.502207 57 57 57
-1.96062 1.4318 -10.3303 -0.931015 0.292311 -0.218553 48 48 48
-1.48375 1.6336 -10.8496 -0.903338 0.0214669 -0.428391 0 0 0
-1.49837 1.65472 -10.8172 -0.921182 -0.00138806 -0.38913 5 5 5
-1.46315 1.50726 -9.30507 -0.301009 -0.939558 0.163171 0 0 0
-1.51374 1.67409 -10.785 -0.920412 -0.070297 -0.384579 67 67 67
-1.50858 1.66589 -10.8449 -0.968021 -0.0150166 0.250419 0 0 0
-1.49375 1.69316 -10.877 -0.468048 -0.871933 0.143746 0 0 0
-1.48366 1.69902 -10.8664 -0.902834 0.00415173 0.429969 0 0 0
-1.73684 1.50377 -9.59471 -0.889689 0.0798631 0.449528 33 33 33
-1.81578 1.47814 -9.64353 -0.851922 -0.440176 0.283678 43 43 43
-1.96501 1.50662 -10.2584 -0.903497 0.122831 -0.410616 63 63 63
-1.53472 1.55533 -9.39754 -0.404634 -0.632103 0.660846 3 3 3
-1.6354 1.54203 -9.52907 -0.783772 0.121511 0.609046 23 23 23
-1.64076 1.56003 -9.59263 -0.521933 -0.24032 0.818433 47 47 47
-1.83125 1.49121 -9.68759 -0.343532 -0.681619 0.64605 31 31 31
-1.82531 1.49493 -9.69264 -0.36644 -0.618792 0.694852 28 28 28
-1.8336 1.49744 -9.72084 -0.356807 -0.631732 0.688189 35 35 35
-1.51245 1.74573 -10.8449 -0.984551 0.0349006 0.171586 0 0 0
-1.62994 1.58106 -9.56572 -0.973761 -0.16177 0.160063 47 47 47
-1.81051 1.53163 -9.63574 -0.796715 0.57822 0.175804 33 33 33
-1.51145 1.78434 -10.8449 -0.897251 0.0263296 -0.440734 0 0 0
-1.83716 1.57685 -9.69453 -0.837101 0.41771 -0.353242 99 99 99
-2.00367 1.53799 -9.86554 -0.804389 0.556172 0.208881 36 36 36
-2.00367 1.53799 -9.86554 -0.804389 0.556172 0.208881 36 36 36
-1.79601 1.67836 -10.4566 -0.864887 -0.0875606 -0.494272 57 57 57
-1.6256 1.63638 -9.40115 -0.452202 -0.649363 -0.611425 60 60 60
-1.83242 1.59008 -9.66425 -0.734081 0.0213638 0.678726 105 105 105
-1.50163 1.87118 -10.8585 -0.999526 0.0213988 -0.0221163 0 0 0
-1.83251 1.62082 -9.55175 -0.835151 -0.3878 0.390044 52 52 52
-1.7666 1.74239 -10.4862 -0.896974 -0.0334371 -0.440818 56 56 56
-1.74532 1.76381 -10.5169 -0.899036 -0.103985 -0.425348 64 64 64
-1.49549 1.89003 -10.8262 -0.942984 -0.0129526 -0.332586 2 2 2
-1.65127 1.68114 -9.34542 -0.669478 -0.455535 0.586759 46 46 46
-1.77992 1.65997 -9.50957 -0.771079 0.0727978 0.632564 52 52 52
-1.78196 1.6592 -9.51018 -0.847892 0.256109 0.464205 52 52 52
-1.79934 1.64533 -9.54277 -0.775517 -0.174652 0.606688 57 57 57
-1.83821 1.63583 -9.57716 -0.876346 -0.401627 0.265921 72 72 72
-1.88494 1.63635 -9.56303 -0.589064 -0.771698 0.239764 68 68 68
-1.86804 1.64937 -9.62737 -0.810037 0.178079 -0.558684 81 81 81
-1.50578 1.93126 -10.8248 -0.977539 -0.107508 0.181274 1 1 1
-1.51235 1.90637 -10.8601 -0.962144 -0.0281079 0.271087 0 0 0
-1.627 1.7125 -9.31991 -0.492834 -0.432611 0.754958 64 64 64
-1.87354 1.6592 -9.57786 -0.694378 -0.61453 0.374423 76 76 76
-1.593 1.89347 -10.6872 -0.923841 -0.0093047 -0.382663 64 64 64
-1.49969 1.97159 -10.8316 -0.982067 -0.0203946 -0.187429 0 0 0
-1.51146 1.946 -10.8597 -0.980719 -0.0423227 -0.190783 0 0 0
-1.67675 1.73885 -9.36427 -0.917282 0.39255 -0.067067 47 47 47
-1.8914 1.77579 -10.3422 -0.845637 -0.0419832 -0.532104 55 55 55
-1.501 2.01002 -10.8312 -0.983566 -0.00944947 -0.180303 0 0 0
-1.49309 1.99265 -10.8665 -0.996097 -0.00795501 -0.0879047 0 0 0
-1.6027 1.98374 -10.6869 -0.872873 -0.134116 -0.469155 68 68 68
-1.48792 2.04004 -10.8666 -0.867246 -0.071078 -0.492781 0 0 0
-1.69278 1.94247 -10.5708 -0.776376 -0.357184 -0.519288 79 79 79
-1.51921 2.04968 -10.7748 -0.874744 -0.0397633 -0.482951 59 59 59
-1.51555 2.04615 -10.8175 -0.849054 -0.132251 0.511485 4 4 4
-1.49125 2.07962 -10.8704 -0.923991 -0.256309 0.283807 0 0 0
-1.51305 2.05114 -10.8388 -0.966714 -0.145117 0.210724 0 0 0
-1.47616 1.99026 -9.95755 -0.249335 -0.962434 -0.107481 23 23 23
-1.95789 1.83996 -10.2599 -0.847642 -0.060333 -0.527127 54 54 54
-1.62717 2.02128 -10.6622 -0.783367 -0.279834 -0.555003 65 65 65
-1.53394 2.06761 -10.7442 -0.882476 -0.201145 -0.425179 65 65 65
-1.52656 2.08922 -10.7751 -0.863831 -0.474143 -0.17025 37 37 37
-1.50361 2.09627 -10.8388 -0.929583 -0.241937 -0.278104 0 0 0
-1.52095 1.94343 -9.59657 -0.404679 -0.725114 -0.557176 0 0 0
-1.47849 1.99742 -9.74252 -0.243437 -0.969914 0.00235938 0 0 0
-1.51068 1.98132 -9.77494 -0.281714 -0.958902 -0.0338269 0 0 0
-1.53434 1.98495 -9.79895 -0.827958 -0.472615 -0.301862 0 0 0
-1.55865 1.98284 -9.8539 -0.155328 -0.986864 -0.0444061 0 0 0
-1.61757 1.96105 -9.91104 -0.163089 -0.985306 -0.0507268 0 0 0
-1.5614 2.07994 -10.7116 -0.769985 -0.320203 -0.5519 65 65 65
-1.5887 2.09134 -10.6811 -0.765392 -0.319763 -0.558505 52 52 52
-1.54484 2.10561 -10.7439 -0.788553 -0.521405 -0.326071 52 52 52
-1.5197 2.11262 -10.808 -0.876266 -0.258414 -0.40667 1 1 1
-1.55121 2.12203 -10.7745 -0.720304 0.0114566 0.693564 1 1 1
-1.52413 2.13007 -10.8372 -0.761926 -0.549189 -0.343309 0 0 0
-1.52937 2.12904 -10.8503 -0.826512 -0.370219 -0.424048 0 0 0
-1.43153 2.02402 -9.71784 -0.297588 -0.952071 0.0707261 0 0 0
-1.56394 1.99317 -9.79868 -0.488578 -0.867528 -0.0932006 0 0 0
-1.59034 2.0087 -10.0135 -0.117401 -0.992747 0.0259063 0 0 0
-1.59568 2.02787 -10.0467 -0.178105 -0.837056 0.517316 0 0 0
-1.69962 2.03756 -10.5692 -0.839358 -0.21034 -0.501234 91 91 91
-1.62036 2.10437 -10.646 -0.77399 -0.294285 -0.560656 41 41 41
-1.56349 2.12514 -10.7137 -0.76431 -0.608247 -0.214164 37 37 37
-1.55484 2.14324 -10.7635 -0.939177 -0.227608 -0.257179 1 1 1
-1.55796 2.15912 -10.6976 -0.611349 -0.592426 -0.524675 32 32 32
-1.56753 2.17321 -10.799 -0.673272 -0.566722 -0.474901 0 0 0
-1.91095 1.94311 -10.0633 -0.669476 -0.355989 0.651977 1 1 1
-1.94453 1.98759 -10.2847 -0.809387 -0.187457 -0.556554 55 55 55
-1.71381 2.12484 -10.5481 -0.864305 -0.132172 -0.485291 62 62 62
-1.5971 2.17931 -10.7626 -0.666086 -0.622249 -0.411261 0 0 0
-1.58575 2.21593 -10.8012 -0.687224 -0.611629 -0.391959 0 0 0
-1.81722 2.03533 -10.0449 -0.318421 -0.723243 0.612803 0 0 0
-1.63285 2.2011 -10.7115 -0.849389 -0.439916 -0.291569 7 7 7
-1.61866 2.20345 -10.7002 -0.778001 -0.335497 -0.531184 14 14 14
-1.71799 2.16625 -10.5479 -0.850624 -0.152042 -0.503311 61 61 61
-1.7042 2.16669 -10.5487 -0.658371 -0.499426 -0.563135 64 64 64
-1.65832 2.2278 -10.6883 -0.196814 -0.974007 -0.112139 0 0 0
-1.60506 2.26554 -10.7614 -0.858951 -0.425833 -0.284375 0 0 0
-1.77022 2.1989 -10.4652 -0.809736 -0.404125 -0.425454 68 68 68
-1.78053 2.20483 -10.4666 -0.749277 -0.506936 -0.426146 69 69 69
-1.77282 2.2217 -10.5001 -0.163837 -0.948566 0.270889 4 4 4
-1.80838 2.21702 -10.4215 -0.711735 -0.58194 -0.39342 61 61 61
-1.80205 2.23621 -10.5256 -0.198652 -0.920475 0.336545 0 0 0
-1.82699 2.24163 -10.4736 -0.237041 -0.905221 0.352685 0 0 0
-2.01972 2.13964 -10.1811 -0.909336 -0.0190015 -0.415628 0 0 0
-1.84599 2.24985 -10.4289 -0.0836122 -0.991145 0.103153 2 2 2
-1.86822 2.26054 -10.454 -0.279562 -0.935879 0.214418 0 0 0
-3.34003 -2.35058 -10.7712 -0.975076 0.208162 -0.076782 14 14 14
-3.34375 -2.34455 -10.7699 -0.988645 -0.0199681 -0.148935 13 13 13
-3.33312 -2.33986 -10.7446 -0.998166 -0.0583219 0.0162429 8 8 8
-3.33145 -2.31296 -10.7517 -0.866519 -0.0230898 0.49861 8 8 8
-3.34217 -2.31214 -10.7705 -0.999976 0.00274365 -0.00636256 13 13 13
-3.20934 -2.3685 -10.6629 -0.456177 0.551981 0.698011 13 13 13
-3.23329 -2.34531 -10.6924 -0.485022 0.612388 0.624288 8 8 8
-3.26326 -2.32577 -10.6962 -0.640301 0.0972861 0.761939 8 8 8
-3.26993 -2.33562 -10.7249 -0.568913 0.697846 0.435142 8 8 8
-3.34422 -2.27621 -10.7699 -0.98241 -0.00679563 -0.18661 13 13 13
-3.1607 -2.36647 -10.6328 -0.193207 0.875284 0.443338 8 8 8
-3.21054 -2.34539 -10.6707 -0.390275 0.580329 0.714775 8 8 8
-3.34291 -2.26491 -10.7434 -0.880617 -0.0524629 0.470916 8 8 8
-3.17104 -2.34188 -10.6636 -0.181217 0.962465 0.20204 8 8 8
-3.33793 -2.2321 -10.7834 -0.992241 0.00149809 0.124319 17 17 17
-3.34729 -2.22497 -10.8151 -0.975798 0.00615276 -0.21859 0 0 0
-3.07648 -2.3628 -10.5156 -0.000685765 0.994116 -0.108319 3 3 3
-3.08475 -2.36153 -10.559 -0.000682952 0.999995 -0.0030842 9 9 9
-3.08456 -2.35953 -10.5915 -0.000648686 0.999969 -0.00777815 6 6 6
-3.33312 -2.20083 -10.7837 -0.974866 -0.0551261 0.215864 17 17 17
-3.34145 -2.20835 -10.8424 -0.979495 -0.00148707 -0.201463 0 0 0
-3.0383 -2.36351 -10.5363 -0.000778722 0.994791 -0.101932 6 6 6
-3.04933 -2.35633 -10.5692 0.0024546 0.999581 -0.0288421 6 6 6
-3.34485 -2.1706 -10.7503 -0.999891 0.00878168 -0.0119097 7 7 7
-2.987 -2.36171 -10.5026 -0.00112846 0.999999 -0.000830145 6 6 6
-3.00721 -2.35505 -10.5168 -0.146732 0.985921 0.0801828 6 6 6
-3.0163 -2.35289 -10.5561 -0.000642543 0.999995 -0.00305289 8 8 8
-3.33865 -2.16395 -10.7839 -0.686163 -0.0632124 0.724696 20 20 20
-2.95228 -2.35672 -10.4787 -0.000255023 0.999996 -0.00264336 6 6 6
-3.34 -2.12854 -10.784 -0.669712 -0.0484077 0.741041 19 19 19
-2.90945 -2.35744 -10.4551 -0.000315551 0.999995 -0.00306052 6 6 6
-3.34051 -2.10198 -10.7439 -0.995095 -0.0200258 -0.0968801 7 7 7
-3.3464 -2.08017 -10.7691 -0.922023 -0.00908085 -0.387029 12 12 12
-2.8712 -2.32777 -10.407 -0.766532 0.595819 0.239642 6 6 6
-3.34228 -2.07008 -10.7436 -0.989167 -0.0149765 -0.146027 7 7 7
-2.78022 -2.35581 -10.344 -0.000334489 0.999995 -0.00316785 6 6 6
-2.84675 -2.32974 -10.3826 -0.772489 0.592919 0.227392 6 6 6
-3.34223 -2.03949 -10.7437 -0.984802 0.0197464 -0.172552 7 7 7
-3.34046 -2.05684 -10.7858 -0.654119 -0.0324345 0.755695 18 18 18
-2.7354 -2.35534 -10.3177 -0.000422626 0.999994 -0.00348337 5 5 5
-2.66911 -2.36526 -10.1616 -0.102298 0.984977 0.139127 0 0 0
-2.69113 -2.36546 -10.1944 -0.224834 0.93962 0.257999 3 3 3
-2.72239 -2.33295 -10.2891 -0.491445 0.866408 0.0884284 6 6 6
-3.34166 -2.00947 -10.7437 -0.984034 0.0558579 -0.168986 7 7 7
-3.34477 -2.01621 -10.8108 -0.984829 -0.0240513 -0.171853 0 0 0
-3.3427 -1.97949 -10.7428 -0.989881 0.0177419 -0.140783 7 7 7
-2.66231 -2.32924 -10.2295 -0.488433 0.636901 0.596482 5 5 5
-3.34377 -1.94913 -10.7428 -0.994271 0.0111368 -0.106311 7 7 7
-3.34304 -1.96261 -10.7682 -0.97771 -0.00627235 -0.209868 11 11 11
-3.34399 -1.9546 -10.8108 -0.979198 0.00826379 -0.202738 0 0 0
-3.34298 -1.93207 -10.767 -0.98579 -0.00208293 -0.16797 11 11 11
