ply
format ascii 1.0
element vertex 722
property float x
property float y
property float z
property float nx
property float ny
property float nz
property uchar diffuse_red
property uchar diffuse_green
property uchar diffuse_blue
end_header
-1.02986 -0.477863 2.41382 -0.948651 -0.294003 0.116724 85 85 85
-1.04433 -0.47999 2.41719 -0.961582 -0.236201 -0.139889 85 85 85
-1.03491 -0.477396 2.40533 -0.928215 -0.342763 -0.144672 71 71 71
-1.02442 -0.486261 2.38875 -0.803748 -0.419098 -0.42231 71 71 71
-1.02388 -0.479548 2.38007 -0.922468 -0.379053 0.073293 86 86 86
-1.03564 -0.472093 2.39645 -0.781819 -0.431171 -0.450389 83 83 83
-1.0287 -0.471922 2.38919 -0.647337 -0.466477 -0.602788 72 72 72
-1.03032 -0.471363 2.3775 -0.946396 -0.278864 -0.163002 71 71 71
-1.03415 -0.467092 2.41346 -0.90907 -0.308859 0.279637 85 85 85
-1.03673 -0.468039 2.40595 -0.971464 -0.141458 -0.190385 57 57 57
-1.03969 -0.462739 2.39688 -0.863226 -0.423858 -0.274199 74 74 74
-1.03565 -0.463247 2.39811 -0.973822 -0.126288 0.189 90 90 90
-1.03682 -0.462056 2.3888 -0.759001 -0.451862 -0.468762 81 81 81
-1.03296 -0.46246 2.37897 -0.83853 -0.473713 -0.269191 71 71 71
-1.0403 -0.458445 2.40516 -0.964333 -0.261474 -0.0411492 57 57 57
-1.03991 -0.453939 2.3987 -0.930062 -0.35768 0.0839612 86 86 86
-1.04349 -0.453114 2.39566 -0.877884 -0.349025 -0.327875 72 72 72
-1.04179 -0.452608 2.38905 -0.948913 -0.293908 0.114814 100 100 100
-1.03599 -0.454924 2.3802 -0.808644 -0.454157 -0.373945 71 71 71
-1.03363 -0.45633 2.36965 -0.968532 -0.12842 0.213201 86 86 86
-1.04483 -0.448398 2.40449 -0.939792 -0.341699 -0.00572205 71 71 71
-1.04925 -0.442945 2.39421 -0.80401 -0.313003 -0.505566 71 71 71
-1.04475 -0.442232 2.38914 -0.954531 -0.278762 -0.105652 74 74 74
-1.04128 -0.445431 2.38022 -0.898391 -0.35022 -0.265028 76 76 76
-1.04337 -0.447895 2.38003 -0.933694 -0.345607 0.0936543 91 91 91
-1.04023 -0.44768 2.36988 -0.913369 -0.40169 0.0663472 86 86 86
-1.0357 -0.44561 2.36943 -0.85094 -0.50618 -0.140293 86 86 86
-1.04261 -0.443603 2.37188 -0.947914 -0.31752 -0.0252958 71 71 71
-1.04654 -0.432886 2.38948 -0.974668 -0.221039 -0.0341046 71 71 71
-1.04538 -0.437209 2.38058 -0.950874 -0.290203 -0.107798 83 83 83
-1.04565 -0.435922 2.37998 -0.954328 -0.29039 -0.0702204 83 83 83
-1.04189 -0.43778 2.37086 -0.836939 -0.505948 -0.208684 71 71 71
-1.04558 -0.43387 2.37199 -0.963567 -0.262999 -0.0486846 71 71 71
-1.04573 -0.438367 2.36238 -0.951644 -0.307134 0.00645596 71 71 71
-1.04811 -0.426412 2.38014 -0.960301 -0.278286 0.0194519 79 79 79
-1.04774 -0.427805 2.38076 -0.95808 -0.286305 0.0106488 79 79 79
-1.04606 -0.428332 2.37154 -0.918227 -0.327208 -0.223144 73 73 73
-1.04797 -0.42873 2.36281 -0.970786 -0.238745 0.0239837 71 71 71
-1.03795 -0.432689 2.36325 -0.931472 -0.302681 -0.201851 86 86 86
-1.04689 -0.424293 2.35495 -0.944673 -0.0295436 0.326681 86 86 86
-1.04917 -0.423229 2.3893 -0.975313 -0.218345 -0.033003 71 71 71
-1.05042 -0.41802 2.38085 -0.968825 -0.109383 0.222292 87 87 87
-1.04962 -0.41678 2.3806 -0.943137 -0.132206 0.304982 86 86 86
-1.05012 -0.418855 2.37125 -0.906493 -0.371163 -0.201269 97 97 97
-1.04901 -0.422965 2.37198 -0.947186 -0.313398 -0.0679682 94 94 94
-1.04982 -0.421522 2.37123 -0.954755 -0.297207 0.0105609 94 94 94
-1.04982 -0.419066 2.36299 -0.960962 -0.270832 -0.0565896 86 86 86
-1.05188 -0.416581 2.36219 -0.916786 -0.396359 0.0490133 86 86 86
-1.0487 -0.422562 2.36205 -0.911896 -0.404729 0.0681087 86 86 86
-1.04946 -0.418026 2.35306 -0.851905 -0.272572 0.44717 86 86 86
-0.799263 -0.447475 2.72749 -0.844112 0.134443 0.519038 0 0 0
-1.04972 -0.413918 2.38994 -0.970214 -0.195749 0.142715 86 86 86
-1.05446 -0.407017 2.3797 -0.960398 -0.270947 0.0649905 85 85 85
-1.05435 -0.409362 2.37113 -0.941414 -0.29468 -0.164024 100 100 100
-1.05318 -0.412948 2.37182 -0.937274 -0.283081 -0.203426 100 100 100
-1.05017 -0.413498 2.36268 -0.90806 -0.327486 -0.261113 86 86 86
-1.04932 -0.41439 2.35491 -0.935836 -0.333638 0.113564 86 86 86
-1.05765 -0.406935 2.35182 -0.891454 -0.24662 0.380116 86 86 86
-1.05308 -0.403459 2.38942 -0.925431 -0.140516 0.3519 86 86 86
-1.05456 -0.405008 2.37944 -0.959951 -0.256907 0.111775 86 86 86
-1.06336 -0.396171 2.3776 -0.538388 -0.381329 -0.751483 86 86 86
-1.05705 -0.402106 2.37055 -0.874617 -0.332519 -0.352811 95 95 95
-1.05163 -0.404734 2.36378 -0.725475 -0.404512 -0.556826 91 91 91
-1.04804 -0.406501 2.35394 -0.924448 -0.196172 -0.326976 86 86 86
-1.2719 -0.369269 2.15025 -0.527835 0.259637 -0.808689 5 5 5
-1.26497 -0.376399 2.14518 -0.489509 0.445584 -0.749557 5 5 5
-1.04738 -0.397794 2.35677 -0.556543 -0.435464 -0.707553 86 86 86
-1.05462 -0.395656 2.35397 -0.918597 -0.386113 -0.0842352 86 86 86
-1.05276 -0.391048 2.34609 -0.867631 -0.497119 -0.00948042 86 86 86
-1.04481 -0.396916 2.34656 -0.928949 0.0667555 -0.36414 86 86 86
-1.27105 -0.362295 2.15081 -0.50869 0.335426 -0.792921 4 4 4
-1.26421 -0.369388 2.14575 -0.493384 0.426181 -0.75825 3 3 3
-1.24941 -0.366242 2.13102 -0.503841 0.397316 -0.766997 4 4 4
-1.22619 -0.369789 2.09129 -0.488194 0.540744 -0.685028 0 0 0
-1.06793 -0.380984 2.38522 -0.554642 -0.261716 -0.789859 89 89 89
-1.05807 -0.38741 2.3558 -0.760511 -0.326389 -0.561332 90 90 90
-1.05473 -0.386669 2.34585 -0.869749 -0.43085 -0.240634 86 86 86
-1.05559 -0.38076 2.34846 -0.941593 -0.312743 0.124876 86 86 86
-1.30818 -0.350811 2.17888 -0.563293 -0.126707 -0.816484 123 123 123
-1.29426 -0.355634 2.17334 -0.599176 -0.360423 -0.714901 103 103 103
-1.26557 -0.358438 2.15047 -0.552373 0.0878927 -0.828951 24 24 24
-1.24634 -0.360594 2.13575 -0.558196 0.183888 -0.809075 7 7 7
-1.22767 -0.364066 2.10198 -0.510109 0.537966 -0.671105 0 0 0
-1.14248 -0.374637 2.06451 -0.961556 -0.272585 0.0332702 0 0 0
-1.07091 -0.370729 2.38591 -0.453579 0.507087 -0.732891 87 87 87
-1.05914 -0.37593 2.33899 -0.880227 -0.328856 0.342132 86 86 86
-1.31405 -0.347447 2.18279 -0.583659 -0.0601293 -0.80977 133 133 133
-1.30892 -0.342942 2.17862 -0.583269 -0.0737387 -0.808925 129 129 129
-1.15213 -0.366117 2.07491 -0.814806 -0.0524924 -0.577352 0 0 0
-1.06713 -0.365933 2.40478 -0.938662 0.338084 0.0679158 86 86 86
-1.06611 -0.366053 2.40519 -0.943141 0.321092 0.0859344 86 86 86
-1.06189 -0.370178 2.34749 -0.815063 -0.36134 -0.452887 86 86 86
-1.06489 -0.368671 2.33788 -0.786125 -0.445019 0.428912 86 86 86
-1.16354 -0.358723 2.07837 -0.616933 -0.00153763 -0.787015 18 18 18
-1.14887 -0.361804 2.06886 -0.911428 -0.0718235 -0.405143 0 0 0
-1.07078 -0.3604 2.34587 -0.876481 -0.337212 0.343612 95 95 95
-1.20578 -0.336378 2.09889 -0.632975 -0.34152 -0.694771 90 90 90
-1.05855 -0.335975 2.41453 -0.778576 0.233739 0.582397 85 85 85
-1.04717 -0.332712 2.37204 -0.89265 0.265258 -0.364436 86 86 86
-1.04653 -0.338151 2.36467 -0.82322 0.347225 -0.449158 85 85 85
-1.29849 -0.309959 2.14867 -0.601507 -0.3678 -0.709163 155 155 155
-1.27567 -0.306626 2.13105 -0.605169 -0.491216 -0.62648 94 94 94
-1.26946 -0.306962 2.12427 -0.667482 -0.494579 -0.55665 113 113 113
-1.26772 -0.300286 2.11747 -0.609086 -0.551558 -0.569911 161 161 161
-1.26837 -0.300573 2.11795 -0.637742 -0.46991 -0.610304 161 161 161
-1.25106 -0.30176 2.10893 -0.71574 -0.102814 -0.690758 174 174 174
-1.28663 -0.291447 2.13082 -0.595724 -0.389423 -0.702469 109 109 109
-1.28069 -0.291845 2.12433 -0.603684 -0.493854 -0.625839 156 156 156
-1.27976 -0.292846 2.12531 -0.59789 -0.393932 -0.698101 157 157 157
-1.31409 -0.281892 2.14186 -0.609246 -0.482301 -0.629448 135 135 135
-1.32072 -0.273194 2.14224 -0.620552 -0.380616 -0.6856 142 142 142
-1.2958 -0.274472 2.08649 -0.832957 -0.223297 -0.506282 131 131 131
-1.25837 -0.277837 2.08065 -0.993591 -0.0711881 -0.0878032 127 127 127
-0.863898 -0.311647 2.59888 -0.950513 -0.172146 0.258632 83 83 83
-1.32803 -0.266027 2.14169 -0.607814 -0.56284 -0.560155 138 138 138
-1.28845 -0.267176 2.0845 -0.691372 -0.0376613 -0.721516 135 135 135
-1.29139 -0.269916 2.08063 -0.596464 -0.152706 -0.787979 132 132 132
-1.38171 -0.252691 2.17456 -0.586039 -0.430511 -0.686454 124 124 124
-1.30358 -0.260708 2.08558 -0.646331 0.0426433 -0.761865 134 134 134
-1.29582 -0.258424 2.07141 -0.594424 0.0342737 -0.803421 133 133 133
-1.13293 -0.281164 2.01113 -0.776064 -0.282802 -0.563691 10 10 10
-1.32649 -0.252572 2.11053 -0.584514 -0.126288 -0.801495 128 128 128
-1.33606 -0.246001 2.1106 -0.624785 -0.197763 -0.755337 130 130 130
-1.31234 -0.249923 2.09729 -0.600958 -0.0331733 -0.798592 130 130 130
-1.31763 -0.253958 2.10125 -0.601884 -0.000206174 -0.798583 130 130 130
-1.31131 -0.248768 2.07545 -0.573481 0.102265 -0.812811 135 135 135
-1.31033 -0.248807 2.07553 -0.571041 0.100962 -0.81469 135 135 135
-1.29592 -0.250887 2.07141 -0.584407 -0.00884607 -0.811413 137 137 137
-1.29614 -0.250222 2.07096 -0.585351 -0.00686336 -0.810751 137 137 137
-1.28967 -0.254667 2.06782 -0.608954 0.0349183 -0.792437 134 134 134
-1.28929 -0.254079 2.06752 -0.590241 0.011038 -0.807152 134 134 134
-1.11385 -0.270022 1.97937 -0.955981 0.00319827 0.293411 0 0 0
-0.656791 -0.29243 2.88088 -0.910778 -0.39297 0.126725 79 79 79
-0.872523 -0.282528 2.58786 -0.842864 -0.492226 0.217471 83 83 83
-1.31322 -0.242353 2.0973 -0.587591 -0.0547976 -0.8073 129 129 129
-1.31838 -0.2452 2.10147 -0.617031 -0.0276358 -0.786454 129 129 129
-1.30754 -0.245155 2.07869 -0.589006 0.0743343 -0.804703 135 135 135
-1.3118 -0.241195 2.07575 -0.585874 0.146679 -0.797018 135 135 135
-1.30155 -0.246477 2.07496 -0.572983 0.0659307 -0.816911 135 135 135
-1.29603 -0.2427 2.07097 -0.580925 0.00560997 -0.813938 137 137 137
-1.1288 -0.264457 1.99674 -0.962592 0.0846195 -0.257403 1 1 1
-1.36812 -0.232513 2.15327 -0.597012 -0.367145 -0.713289 77 77 77
-1.31318 -0.237869 2.09396 -0.575101 -0.0251393 -0.817696 129 129 129
-1.3207 -0.232683 2.0869 -0.573707 0.0563749 -0.817118 130 130 130
-1.30077 -0.239016 2.07494 -0.588872 -0.0026124 -0.808222 137 137 137
-0.89567 -0.258703 2.58363 -0.53626 -0.714201 -0.449825 85 85 85
-0.890879 -0.259316 2.5854 -0.536595 -0.768091 -0.34943 85 85 85
-1.36038 -0.227759 2.14065 -0.971861 -0.207327 -0.111813 109 109 109
-1.30121 -0.231462 2.07484 -0.577197 0.0237442 -0.81626 135 135 135
-1.39984 -0.203079 2.15594 -0.594888 -0.390799 -0.702413 86 86 86
-1.37878 -0.210148 2.14634 -0.889449 -0.453073 -0.0600504 94 94 94
-1.29789 -0.206661 2.07254 -0.548384 0.392235 -0.73853 132 132 132
-1.12092 -0.223738 1.9673 -0.960479 0.26173 0.0947454 9 9 9
-1.40446 -0.189317 2.1515 -0.598652 -0.401825 -0.69293 101 101 101
-1.2943 -0.201024 2.0751 -0.553678 0.293828 -0.77917 126 126 126
-1.28991 -0.197533 2.07053 -0.584392 0.38683 -0.713336 131 131 131
-1.28334 -0.196965 2.06574 -0.528706 0.525572 -0.666517 136 136 136
-1.28882 -0.203417 2.06585 -0.533733 0.477071 -0.698236 138 138 138
-1.23495 -0.207582 2.02376 -0.654507 -0.238338 -0.717507 131 131 131
-1.23908 -0.20003 2.0223 -0.84756 -0.526971 -0.0628044 135 135 135
-1.1186 -0.212823 1.96075 -0.708796 -0.341695 -0.617132 22 22 22
-1.4283 -0.179785 2.1621 -0.600432 -0.443198 -0.665625 94 94 94
-1.40943 -0.181912 2.15188 -0.582026 -0.429836 -0.69028 84 84 84
-1.40314 -0.182496 2.14649 -0.592984 -0.407327 -0.694589 147 147 147
-1.28577 -0.191445 2.06803 -0.609728 0.195677 -0.768078 122 122 122
-1.27514 -0.194417 2.05935 -0.539072 0.467777 -0.700418 134 134 134
-1.22123 -0.194543 2.00297 -0.728266 -0.338162 -0.59605 135 135 135
-1.27401 -0.187761 2.05298 -0.599587 -0.54117 -0.589602 131 131 131
-1.24368 -0.186244 2.01021 -0.816722 -0.021724 -0.576622 134 134 134
-1.28025 -0.17392 2.04628 -0.62906 -0.530451 -0.568248 126 126 126
-1.28619 -0.173352 2.05305 -0.627527 -0.535426 -0.56527 123 123 123
-1.2743 -0.174489 2.03951 -0.600296 -0.528798 -0.600015 128 128 128
-1.24884 -0.176275 2.01269 -0.782039 -0.452249 -0.428818 132 132 132
-0.686359 -0.19154 2.87233 -0.97703 -0.184003 0.107493 17 17 17
-1.40558 -0.162041 2.13637 -0.590636 -0.381708 -0.710948 136 136 136
-1.27973 -0.165806 2.04015 -0.66204 -0.485732 -0.570761 125 125 125
-1.25472 -0.168253 2.0124 -0.824177 -0.374779 -0.424586 129 129 129
-0.690404 -0.186496 2.86235 -0.960358 -0.23338 0.152465 74 74 74
-1.13833 -0.167517 1.94807 -0.638626 -0.552463 -0.535669 68 68 68
-0.693156 -0.17498 2.8621 -0.969153 -0.223391 0.104115 43 43 43
-1.40705 -0.142977 2.12642 -0.586957 -0.430132 -0.685907 123 123 123
-1.39267 -0.136832 2.11067 -0.591742 -0.38315 -0.709251 135 135 135
-1.14746 -0.154414 1.93403 -0.632563 -0.607913 -0.479902 4 4 4
-1.14746 -0.154414 1.93403 -0.632563 -0.607913 -0.479902 4 4 4
-1.34627 -0.1169 2.06002 -0.763076 -0.10906 -0.637041 107 107 107
-1.42408 -0.110591 2.12412 -0.530384 0.572506 -0.625244 125 125 125
-1.35242 -0.110044 2.06577 -0.603614 -0.388295 -0.696331 145 145 145
-0.711149 -0.113781 2.85071 -0.859086 -0.422338 -0.289139 0 0 0
-1.35307 -0.10359 2.0609 -0.604236 -0.380091 -0.700306 185 185 185
-1.34089 -0.104365 2.05049 -0.698801 -0.088129 -0.709867 113 113 113
-1.22681 -0.105842 1.97349 -0.627779 -0.38809 -0.674744 109 109 109
-1.37568 -0.0969846 2.07451 -0.584626 -0.409304 -0.700487 113 113 113
-1.34384 -0.0973394 2.05047 -0.612946 -0.25244 -0.748713 116 116 116
-0.714731 -0.0970161 2.83996 -0.973875 -0.152959 0.167844 0 0 0
-0.711049 -0.100957 2.80466 -0.981078 -0.103513 0.16362 80 80 80
-1.33935 -0.0903059 2.04399 -0.604157 -0.388045 -0.695999 127 127 127
-1.33293 -0.0909976 2.03898 -0.601671 -0.399742 -0.691518 84 84 84
-1.30243 -0.0917579 2.0193 -0.604069 -0.450054 -0.657687 88 88 88
-1.25734 -0.0767565 1.97592 -0.607377 -0.418218 -0.675416 97 97 97
-1.34093 -0.0624567 2.02829 -0.626407 -0.346408 -0.698295 96 96 96
-1.31071 -0.06564 2.00882 -0.598524 -0.451472 -0.661773 155 155 155
-1.36539 -0.0493219 2.03698 -0.596528 -0.446821 -0.666713 140 140 140
-1.34327 -0.0494957 2.02327 -0.615611 -0.371646 -0.694912 130 130 130
-1.30476 -0.0523474 1.99549 -0.605398 -0.407665 -0.683595 121 121 121
-1.35903 -0.0426269 2.02674 -0.6378 -0.373544 -0.673555 114 114 114
-1.34097 -0.0431521 2.01869 -0.609263 -0.389737 -0.690582 103 103 103
-1.33527 -0.0430738 2.0136 -0.58962 -0.426475 -0.685907 113 113 113
-1.30435 -0.0457864 1.9904 -0.613386 -0.393866 -0.684563 132 132 132
-1.26059 -0.0444398 1.96145 -0.688323 -0.228856 -0.688358 126 126 126
-1.3442 -0.035205 2.01878 -0.633818 -0.148506 -0.759092 98 98 98
-1.33147 -0.0326874 2.00366 -0.622523 -0.41008 -0.666558 70 70 70
-1.30583 -0.0328835 1.98608 -0.632176 -0.357745 -0.687293 88 88 88
-1.25587 -0.0395182 1.95719 -0.647783 -0.250898 -0.719324 100 100 100
-1.39023 -0.0185266 2.09452 -0.524026 0.836053 -0.162517 52 52 52
-1.23488 -0.010819 2.45951 -0.878685 0.462705 0.117544 210 210 210
-1.3759 -0.00383085 2.09331 -0.518547 0.85271 -0.0632032 69 69 69
-1.36734 0.00378654 2.12241 -0.538579 0.737472 -0.407513 90 90 90
-1.34306 0.0038721 2.09877 -0.518448 0.846924 -0.118033 86 86 86
-1.32873 0.00893989 2.11349 -0.518845 0.845967 -0.123039 52 52 52
-1.34828 0.0226658 2.14074 -0.531279 0.801757 -0.27373 87 87 87
-1.34674 0.0183409 2.13432 -0.530108 0.806948 -0.260423 80 80 80
-1.31582 0.0453931 2.19798 -0.540102 0.822963 -0.176129 72 72 72
-1.2771 0.0752448 2.23972 -0.534658 0.824591 -0.184909 109 109 109
-1.24512 0.0875255 2.34883 -0.993219 0.115829 -0.00995168 179 179 179
-1.26651 0.085182 2.25953 -0.536484 0.742521 -0.401059 46 46 46
-1.25456 0.0950839 2.34445 -0.512235 0.435167 -0.740436 197 197 197
-1.24512 0.0915122 2.3416 -0.993155 0.116062 -0.0131097 179 179 179
-1.24137 0.0935268 2.25137 -0.539864 0.807648 -0.237174 111 111 111
-1.04951 0.118815 2.69445 -0.646156 0.759128 0.078787 61 61 61
-1.18094 0.111651 2.49978 -0.466875 0.454313 -0.758702 92 92 92
-1.24875 0.101183 2.27527 -0.561468 0.719484 -0.408774 59 59 59
-1.24837 0.101201 2.27542 -0.559637 0.718251 -0.413426 59 59 59
-1.2321 0.111051 2.29098 -0.561774 0.71375 -0.418296 102 102 102
-1.03709 0.131033 2.71927 -0.524419 0.833756 -0.172729 39 39 39
-1.19102 0.12506 2.37053 -0.540768 0.809387 -0.229047 194 194 194
-1.22297 0.131702 2.32668 -0.549095 0.802405 -0.233755 185 185 185
-1.21839 0.138239 2.33891 -0.54454 0.791849 -0.276498 186 186 186
-1.20895 0.141853 2.34753 -0.545339 0.805581 -0.231612 187 187 187
-1.21206 0.150508 2.3493 -0.549745 0.813918 -0.187929 181 181 181
-1.05051 0.195852 2.61785 -0.673302 0.739287 0.0109151 120 120 120
-1.15691 0.178447 2.408 -0.551008 0.792052 -0.262762 146 146 146
-1.43809 0.163616 1.81376 -0.622361 0.782404 -0.0226081 0 0 0
-0.891438 0.223038 2.81925 -0.429591 0.555772 -0.711737 115 115 115
-0.947477 0.221043 2.7138 -0.780182 0.544432 0.308074 121 121 121
-1.12764 0.19861 2.34027 -0.740546 0.553655 -0.380865 0 0 0
-0.866584 0.236642 2.83272 -0.437735 0.589411 -0.678957 127 127 127
-1.01714 0.221194 2.60935 -0.618826 0.785251 -0.020853 117 117 117
-1.02954 0.223083 2.58708 -0.832901 0.552637 0.0294704 116 116 116
-1.12365 0.205372 2.35014 -0.75193 0.522519 0.401964 0 0 0
-0.788136 0.24956 2.91369 -0.322015 -0.0228884 -0.946458 0 0 0
-1.16494 0.209259 2.23345 -0.770929 0.158054 0.616999 89 89 89
-0.803261 0.260824 2.91248 -0.314983 -0.0561169 -0.947437 0 0 0
-1.04089 0.234651 2.56998 -0.562539 0.81217 -0.154692 114 114 114
-0.916849 0.286343 2.70547 -0.657185 0.753419 0.0216279 114 114 114
-0.757223 0.339627 2.88194 -0.383534 0.0759456 -0.920399 0 0 0
-1.09655 0.332169 2.358 -0.532735 0.321689 -0.782758 53 53 53
-1.00527 0.346689 2.45593 -0.909319 0.0728242 0.409678 85 85 85
-0.9826 0.364421 2.48316 -0.921551 0.247325 0.29929 85 85 85
-1.09283 0.348519 2.36379 -0.539467 0.383149 -0.749781 54 54 54
-0.971745 0.370061 2.49323 -0.916169 0.358547 0.179104 84 84 84
-1.09528 0.356315 2.36948 -0.583615 0.32468 -0.744296 64 64 64
-0.981952 0.37904 2.50492 -0.817717 0.214 0.534362 84 84 84
-1.0764 0.365932 2.33222 -0.789592 0.517278 0.330103 86 86 86
-0.909203 0.403269 2.62643 -0.57265 0.702208 -0.423056 0 0 0
-0.93692 0.399242 2.52775 -0.834579 0.310293 0.455188 84 84 84
-1.07572 0.376382 2.36355 -0.786555 -0.39675 0.473203 86 86 86
-1.07668 0.371996 2.35507 -0.939732 -0.260683 0.221243 86 86 86
-1.07429 0.376593 2.34588 -0.917031 -0.329107 -0.225259 82 82 82
-1.06742 0.374511 2.33907 -0.704338 -0.426423 -0.567513 71 71 71
-1.06322 0.372675 2.33192 -0.766945 -0.36655 -0.526722 71 71 71
-0.925082 0.408189 2.54868 -0.891484 0.0721055 0.447278 83 83 83
-1.07574 0.384947 2.36273 -0.867515 -0.175159 0.465551 86 86 86
-1.08158 0.384345 2.36215 -0.580878 0.59192 -0.558759 86 86 86
-1.07343 0.381002 2.35519 -0.971333 -0.0560106 0.231029 86 86 86
-1.07884 0.380515 2.35493 -0.85487 -0.172897 -0.489188 71 71 71
-1.07796 0.384732 2.34577 -0.843421 -0.346299 -0.410753 76 76 76
-1.07804 0.38485 2.34615 -0.84491 -0.345022 -0.408763 75 75 75
-1.0724 0.382657 2.33896 -0.692567 -0.392194 -0.605421 75 75 75
-1.06757 0.380718 2.33188 -0.801253 -0.420639 -0.425507 72 72 72
-0.924441 0.419278 2.57143 -0.788232 0.520317 0.328574 83 83 83
-0.917292 0.4144 2.56052 -0.92759 0.171145 0.332092 83 83 83
-0.917292 0.4144 2.56052 -0.92759 0.171145 0.332092 83 83 83
-1.07852 0.389074 2.3543 -0.952278 -0.275344 -0.131732 71 71 71
-1.07754 0.389718 2.35627 -0.953438 -0.295075 -0.062351 71 71 71
-1.0821 0.393855 2.34571 -0.811489 -0.394611 -0.431008 71 71 71
-1.07677 0.390735 2.33895 -0.741954 -0.397716 -0.539747 82 82 82
-1.0685 0.392677 2.32552 -0.711827 -0.248867 -0.656786 72 72 72
-1.07937 0.398676 2.35621 -0.983486 -0.179923 0.0195486 71 71 71
-1.08045 0.4031 2.34804 -0.998368 -0.0568932 0.00488544 57 57 57
-1.07918 0.402411 2.34867 -0.969918 -0.207794 0.12681 71 71 71
-1.08045 0.398885 2.33881 -0.903212 -0.358667 -0.235727 80 80 80
-1.07442 0.400496 2.32494 -0.786751 -0.403585 -0.467056 72 72 72
-1.08205 0.411582 2.34847 -0.961604 -0.245489 0.12269 57 57 57
-1.08269 0.407478 2.33911 -0.939261 -0.335773 -0.0710271 73 73 73
-1.08351 0.407996 2.3392 -0.923923 -0.357749 -0.135584 72 72 72
-1.07914 0.411079 2.32425 -0.781087 -0.397002 -0.481967 72 72 72
-1.08063 0.403436 2.33136 -0.901676 -0.341658 -0.265048 79 79 79
-1.0829 0.412307 2.3481 -0.956088 -0.269059 0.116202 57 57 57
-1.08869 0.419153 2.34765 -0.969243 -0.145206 0.198704 86 86 86
-1.08913 0.41572 2.33872 -0.812573 -0.42818 -0.395458 71 71 71
-1.08353 0.419025 2.32431 -0.782952 -0.451341 -0.428109 75 75 75
-1.08421 0.413393 2.33147 -0.698611 -0.421389 -0.578251 83 83 83
-1.07603 0.417146 2.31803 -0.654264 -0.407312 -0.637209 71 71 71
-1.08921 0.424377 2.34023 -0.758715 -0.568716 0.317668 86 86 86
-1.08562 0.421469 2.34804 -0.944473 -0.317957 0.0829043 71 71 71
-1.08483 0.420765 2.34831 -0.947639 -0.294518 0.123451 71 71 71
-1.08789 0.426941 2.32442 -0.784442 -0.462599 -0.4131 83 83 83
-1.08873 0.421288 2.33149 -0.786385 -0.458429 -0.414054 75 75 75
-1.0826 0.424724 2.31727 -0.773295 -0.443221 -0.453398 71 71 71
-1.07742 0.422502 2.31011 -0.849979 -0.457832 0.260627 86 86 86
-1.09462 0.434938 2.33922 -0.903935 -0.37372 -0.207931 71 71 71
-1.09263 0.434903 2.32403 -0.797124 -0.365426 -0.480685 80 80 80
-1.09374 0.430527 2.33146 -0.798407 -0.379466 -0.467494 71 71 71
-1.08711 0.432434 2.31733 -0.764357 -0.427388 -0.482803 73 73 73
-1.08218 0.430412 2.31003 -0.844767 -0.397251 -0.358554 72 72 72
-1.09416 0.439197 2.33153 -0.967555 -0.0687197 -0.243137 72 72 72
-1.09622 0.443351 2.33878 -0.836364 0.545824 -0.0507056 86 86 86
-1.09041 0.440365 2.31692 -0.728106 -0.359332 -0.583731 79 79 79
-1.08702 0.437818 2.30945 -0.897031 -0.36676 -0.246621 72 72 72
-1.08556 0.442839 2.3026 -0.801594 -0.562568 0.202394 87 87 87
-1.09495 0.448075 2.33168 -0.990132 -0.132064 -0.0468769 71 71 71
-1.095 0.443537 2.32361 -0.894667 -0.286913 -0.342422 74 74 74
-1.09448 0.449365 2.31528 -0.902959 -0.366311 0.224682 101 101 101
-1.08631 0.446862 2.31125 -0.504114 -0.470861 -0.723989 72 72 72
-1.10034 0.456093 2.33004 -0.90396 -0.330102 -0.271825 72 72 72
-1.0994 0.451745 2.32237 -0.789583 -0.423502 -0.444077 71 71 71
-1.09381 0.455089 2.31103 -0.516133 -0.515601 -0.683931 77 77 77
-1.08493 0.455399 2.30488 -0.554525 -0.490201 -0.672462 72 72 72
-0.890789 0.501167 2.57422 -0.948265 -0.316143 -0.0291058 83 83 83
-1.09658 0.461501 2.32409 -0.902844 -0.34294 0.259353 86 86 86
-1.10049 0.466078 2.31151 -0.918605 -0.371819 -0.13385 80 80 80
-1.09181 0.463124 2.30486 -0.54853 -0.442322 -0.709553 72 72 72
-1.08666 0.462715 2.29721 -0.566278 -0.163325 -0.80787 72 72 72
-1.10661 0.473607 2.32585 -0.938572 -0.211051 0.27302 86 86 86
-1.10343 0.469729 2.31886 -0.955769 -0.116598 -0.270021 71 71 71
-1.10343 0.469721 2.31896 -0.954483 -0.115708 -0.274907 71 71 71
-1.10337 0.474314 2.31159 -0.930827 -0.345926 -0.117882 73 73 73
-1.10402 0.47422 2.31142 -0.904272 -0.365711 -0.220337 73 73 73
-1.10024 0.470764 2.30423 -0.919398 -0.34582 -0.187393 78 78 78
-1.08834 0.471439 2.29915 -0.453166 -0.370073 -0.810979 86 86 86
-1.09341 0.471873 2.29597 -0.705547 -0.411047 -0.577273 87 87 87
-1.10514 0.478055 2.31961 -0.961046 -0.275607 -0.020755 71 71 71
-1.1041 0.478449 2.31979 -0.97275 -0.219066 -0.0759405 71 71 71
-1.10327 0.478973 2.30425 -0.921701 -0.373089 -0.106165 83 83 83
-1.09727 0.480017 2.29623 -0.680783 -0.476467 -0.556339 72 72 72
-1.08953 0.47902 2.28994 -0.565295 0.114247 -0.816939 87 87 87
-1.10755 0.486713 2.3192 -0.898318 -0.433766 -0.0697948 71 71 71
-1.10722 0.491216 2.31242 -0.998469 -0.0542998 0.0105049 72 72 72
-1.10562 0.491477 2.31309 -0.968414 -0.112277 0.22264 87 87 87
-1.10767 0.486969 2.30384 -0.913491 -0.318407 -0.253282 78 78 78
-1.09634 0.486458 2.28942 -0.667406 -0.454817 -0.58967 87 87 87
-1.11059 0.499362 2.31223 -0.956395 -0.292056 -0.00359651 72 72 72
-1.10971 0.499561 2.31252 -0.958752 -0.277643 0.0609072 72 72 72
-1.11019 0.495178 2.30396 -0.9343 -0.326168 -0.143867 72 72 72
-1.10706 0.491713 2.29671 -0.824695 -0.436272 -0.359924 81 81 81
-1.10622 0.497017 2.28972 -0.858141 -0.381824 -0.343227 88 88 88
-1.10898 0.500017 2.31194 -0.966106 -0.222699 0.130556 71 71 71
-1.1125 0.503534 2.30418 -0.952572 -0.303187 -0.0261408 71 71 71
-1.11019 0.499741 2.29664 -0.917951 -0.317502 -0.23782 83 83 83
-1.10954 0.505024 2.28981 -0.748409 -0.377984 -0.544988 93 93 93
-1.1092 0.504545 2.28966 -0.763041 -0.367403 -0.531774 92 92 92
-1.10629 0.501912 2.28239 -0.862578 -0.373287 -0.341492 87 87 87
-1.10995 0.508826 2.31392 -0.727088 0.527948 -0.438878 86 86 86
-1.11385 0.507819 2.31203 -0.88336 -0.468438 0.0155292 71 71 71
-1.10887 0.509076 2.31363 -0.744643 0.643245 -0.178165 86 86 86
-1.11475 0.512118 2.30435 -0.978897 -0.110184 -0.172105 71 71 71
-1.11268 0.507959 2.29677 -0.949016 -0.289989 -0.123595 77 77 77
-1.11029 0.510408 2.28236 -0.854738 -0.422762 -0.301155 87 87 87
-1.11018 0.509759 2.28211 -0.868625 -0.410668 -0.277203 87 87 87
-1.10689 0.516044 2.27634 -0.752489 -0.653082 -0.08511 87 87 87
-1.11293 0.521347 2.30542 -0.885455 0.464664 -0.00749737 87 87 87
-1.11681 0.516067 2.29282 -0.793176 -0.420899 -0.440131 76 76 76
-1.11639 0.515254 2.29282 -0.781752 -0.423691 -0.457547 77 77 77
-1.11532 0.520859 2.28597 -0.787159 -0.442265 -0.429863 81 81 81
-1.12282 0.528315 2.30049 -0.970429 0.020842 0.240484 87 87 87
-1.1199 0.524364 2.29229 -0.9797 -0.192661 -0.0554084 87 87 87
-1.11906 0.52902 2.2852 -0.88305 -0.406005 -0.235335 99 99 99
-1.11349 0.525612 2.27686 -0.718664 -0.433728 -0.543509 87 87 87
-1.10985 0.532323 2.27084 -0.755954 -0.601137 -0.259168 87 87 87
-1.12054 0.533191 2.29269 -0.963894 -0.228483 -0.136763 86 86 86
-1.12017 0.537703 2.28544 -0.94615 -0.312451 0.0847016 93 93 93
-1.11648 0.534337 2.27889 -0.412837 -0.527728 -0.74234 93 93 93
-1.21072 0.518038 2.15029 -0.855406 0.210327 0.473331 0 0 0
-1.12428 0.541189 2.29203 -0.937803 -0.227239 -0.262467 72 72 72
-1.12311 0.545847 2.28503 -0.939954 -0.244258 0.23838 88 88 88
-1.12236 0.541842 2.27745 -0.721826 -0.343768 -0.600658 102 102 102
-1.11915 0.5435 2.27113 -0.708427 -0.370327 -0.600824 88 88 88
-1.12872 0.54891 2.29111 -0.833171 -0.403141 -0.378553 65 65 65
-1.12722 0.549959 2.27716 -0.749021 -0.123176 -0.650996 98 98 98
-1.12841 0.552461 2.26428 -0.802453 0.344884 0.486955 87 87 87
-1.13097 0.555493 2.289 -0.809596 -0.451871 -0.374656 65 65 65
-1.11099 0.58572 2.3186 -0.766299 0.619635 0.169821 86 86 86
-1.07429 0.609711 2.37779 -0.961466 0.166034 0.219125 86 86 86
-1.071 0.615005 2.38739 -0.965726 0.155922 0.207514 85 85 85
-1.0602 0.627012 2.40861 -0.97344 0.222957 0.0520013 85 85 85
-1.0602 0.627012 2.40861 -0.97344 0.222957 0.0520013 85 85 85
-1.0602 0.627012 2.40861 -0.97344 0.222957 0.0520013 85 85 85
-1.06292 0.621635 2.39891 -0.969712 0.236575 0.0607521 85 85 85
-1.06371 0.630819 2.41572 -0.950412 0.305915 -0.05598 64 64 64
-0.948307 0.687696 2.52863 -0.930654 -0.284807 0.229711 0 0 0
-1.17274 -0.689055 2.16607 -0.892481 -0.360814 -0.270723 0 0 0
-1.17247 -0.680622 2.16634 -0.650009 -0.45413 -0.609307 0 0 0
-1.01301 -0.541412 2.40178 -0.895287 -0.404396 -0.186883 55 55 55
-1.0145 -0.541057 2.40137 -0.92302 -0.379365 -0.0641597 55 55 55
-1.01951 -0.516882 2.39448 -0.965352 -0.159827 -0.20628 55 55 55
-1.02984 -0.481878 2.3971 -0.550958 -0.403526 -0.730487 67 67 67
-1.05437 -0.439985 2.40203 -0.831579 -0.540446 -0.128043 45 45 45
-1.10521 -0.426557 2.37467 -0.18795 0.0499347 -0.980908 45 45 45
-1.3165 -0.374072 2.18479 -0.351756 0.442226 -0.825048 14 14 14
-1.33328 -0.368335 2.19103 -0.342727 0.362336 -0.866747 13 13 13
-1.31756 -0.366332 2.18163 -0.342888 0.378179 -0.859889 13 13 13
-1.31175 -0.367448 2.18643 -0.358696 0.255686 -0.897754 13 13 13
-1.24234 -0.374807 2.13387 -0.564655 0.308053 -0.765682 0 0 0
-1.23954 -0.376211 2.12458 -0.412823 0.588724 -0.694968 0 0 0
-1.22782 -0.37484 2.11001 -0.441672 0.407624 -0.79923 0 0 0
-1.27377 -0.367375 2.14643 -0.334329 0.227662 -0.914546 2 2 2
-1.27815 -0.366384 2.14312 -0.229786 0.237973 -0.943699 2 2 2
-1.25712 -0.369427 2.14137 -0.496057 0.420012 -0.759945 4 4 4
-1.24061 -0.366704 2.12314 -0.474087 0.442828 -0.761016 10 10 10
-1.22032 -0.371198 2.08781 -0.457304 0.378948 -0.804532 0 0 0
-1.21363 -0.37147 2.08561 -0.42002 0.333928 -0.843845 0 0 0
-1.33638 -0.354101 2.19524 -0.315784 -0.338452 -0.886415 11 11 11
-1.31964 -0.352202 2.18881 -0.463322 -0.376026 -0.802457 92 92 92
-1.3225 -0.353023 2.19039 -0.407466 -0.256321 -0.876511 75 75 75
-1.3206 -0.352614 2.1855 -0.423256 -0.18621 -0.886668 80 80 80
-1.3136 -0.355477 2.18423 -0.534302 -0.234513 -0.812112 82 82 82
-1.27474 -0.360655 2.15004 -0.357174 0.42144 -0.833556 3 3 3
-1.25127 -0.362751 2.14201 -0.721 -0.120926 -0.682302 7 7 7
-1.25751 -0.363221 2.14646 -0.733411 0.0484803 -0.678054 11 11 11
-1.24049 -0.359563 2.12348 -0.496746 0.366965 -0.786499 9 9 9
-1.15015 -0.374803 2.07592 -0.8704 -0.265055 -0.414908 0 0 0
-1.14857 -0.370149 2.0685 -0.922999 -0.109349 -0.368938 0 0 0
-1.31491 -0.344869 2.18391 -0.411166 -0.309942 -0.857251 133 133 133
-1.27084 -0.353612 2.15378 -0.516065 -0.296021 -0.803771 64 64 64
-1.28206 -0.347112 2.15381 -0.37957 0.262358 -0.887183 109 109 109
-1.26468 -0.350637 2.15 -0.54193 -0.462583 -0.701662 99 99 99
-1.27381 -0.346912 2.14933 -0.380425 0.193735 -0.904292 76 76 76
-1.23915 -0.352645 2.13275 -0.455309 -0.515498 -0.725917 124 124 124
-1.22974 -0.358474 2.11371 -0.23814 0.310841 -0.920145 9 9 9
-1.18932 -0.359778 2.09337 -0.497182 -0.0624188 -0.865398 5 5 5
-1.19885 -0.360071 2.0973 -0.347551 -0.146002 -0.926224 2 2 2
-1.18818 -0.358561 2.09089 -0.480696 -0.00984561 -0.876832 11 11 11
-1.17927 -0.358241 2.08567 -0.38032 -0.0213335 -0.924609 14 14 14
-1.34934 -0.331313 2.19316 -0.279456 -0.226838 -0.932979 11 11 11
-1.33637 -0.339192 2.1915 -0.391421 -0.272876 -0.878822 74 74 74
-1.32162 -0.335723 2.18194 -0.528781 -0.434128 -0.72933 117 117 117
-1.31427 -0.335427 2.1765 -0.514786 -0.432965 -0.739958 99 99 99
-1.30576 -0.335382 2.17096 -0.526627 -0.479944 -0.701653 102 102 102
-1.26663 -0.341378 2.14549 -0.521253 -0.440934 -0.730666 151 151 151
-1.25912 -0.341182 2.14003 -0.522154 -0.432146 -0.735258 161 161 161
-1.18313 -0.351252 2.08499 -0.39393 0.189495 -0.899395 73 73 73
-1.16555 -0.351291 2.07809 -0.547399 -0.376424 -0.747435 133 133 133
-1.15882 -0.35209 2.07556 -0.520112 -0.326242 -0.789335 114 114 114
-1.14949 -0.353392 2.0689 -0.91124 -0.0764344 -0.404721 16 16 16
-1.35387 -0.323294 2.19222 -0.300149 -0.273459 -0.913855 20 20 20
-1.33777 -0.330116 2.18982 -0.591059 -0.446137 -0.67202 116 116 116
-1.32218 -0.327943 2.1758 -0.436628 -0.448874 -0.779659 75 75 75
-1.31998 -0.328395 2.17659 -0.540751 -0.450254 -0.710535 85 85 85
-1.31261 -0.328256 2.17082 -0.551356 -0.453657 -0.700144 85 85 85
-1.30481 -0.328564 2.16518 -0.531042 -0.490016 -0.691288 109 109 109
-1.3051 -0.328249 2.16514 -0.518323 -0.483639 -0.70529 110 110 110
-1.29828 -0.335308 2.16527 -0.542084 -0.452335 -0.708194 91 91 91
-1.29068 -0.335085 2.15979 -0.523178 -0.442637 -0.728257 144 144 144
-1.2833 -0.334941 2.15404 -0.508189 -0.450428 -0.73407 137 137 137
-1.26525 -0.333977 2.13993 -0.475144 -0.441769 -0.760972 138 138 138
-1.25212 -0.340804 2.13437 -0.51525 -0.43769 -0.736848 118 118 118
-1.25728 -0.333802 2.13467 -0.536568 -0.469376 -0.701271 123 123 123
-1.25043 -0.333405 2.12896 -0.526162 -0.484006 -0.699208 91 91 91
-1.24428 -0.340542 2.12899 -0.523847 -0.436694 -0.731357 117 117 117
-1.2397 -0.336881 2.12444 -0.46694 -0.39373 -0.791798 127 127 127
-1.21953 -0.342951 2.11266 -0.516737 -0.365752 -0.774086 130 130 130
-1.19991 -0.343614 2.09888 -0.529757 -0.437374 -0.726678 88 88 88
-1.18643 -0.344221 2.08802 -0.468783 -0.405014 -0.784988 82 82 82
-1.16341 -0.344292 2.07339 -0.518486 -0.424378 -0.742344 147 147 147
-1.15831 -0.344656 2.07217 -0.581806 -0.418754 -0.697242 130 130 130
-1.34574 -0.323409 2.19031 -0.346439 -0.310913 -0.88505 59 59 59
-1.31803 -0.32111 2.171 -0.540204 -0.432595 -0.721832 82 82 82
-1.31042 -0.321619 2.1655 -0.53147 -0.460618 -0.710895 118 118 118
-1.29709 -0.327887 2.15941 -0.501558 -0.485704 -0.715913 132 132 132
-1.30292 -0.321104 2.15971 -0.538688 -0.461228 -0.705042 161 161 161
-1.28943 -0.327795 2.15396 -0.539509 -0.459017 -0.705857 141 141 141
-1.27303 -0.328308 2.14286 -0.604449 -0.385602 -0.697103 110 110 110
-1.26522 -0.329289 2.13761 -0.512627 -0.44975 -0.731395 145 145 145
-1.24617 -0.328901 2.12316 -0.524148 -0.489501 -0.696892 124 124 124
-1.23878 -0.32825 2.11713 -0.503943 -0.469866 -0.724754 108 108 108
-1.22624 -0.335393 2.1111 -0.466142 -0.399359 -0.789445 105 105 105
-1.23098 -0.328217 2.11162 -0.49049 -0.469992 -0.733844 83 83 83
-1.2177 -0.335504 2.107 -0.481008 -0.435519 -0.760891 100 100 100
-1.22335 -0.328154 2.10656 -0.489227 -0.45527 -0.743899 91 91 91
-1.21043 -0.33541 2.10174 -0.579492 -0.425173 -0.695281 95 95 95
-1.19808 -0.336311 2.0934 -0.531924 -0.432725 -0.727878 98 98 98
-1.18401 -0.33626 2.08236 -0.364613 -0.35123 -0.862377 128 128 128
-1.17434 -0.33595 2.0767 -0.468792 -0.406256 -0.78434 168 168 168
-1.16897 -0.337075 2.0735 -0.503145 -0.470388 -0.724969 161 161 161
-1.16163 -0.336844 2.06796 -0.513149 -0.469922 -0.718228 153 153 153
-1.15205 -0.336593 2.06267 -0.60289 -0.409122 -0.68494 133 133 133
-1.32109 -0.316643 2.16989 -0.53376 -0.495761 -0.68507 87 87 87
-1.30753 -0.316802 2.1596 -0.543601 -0.45358 -0.706232 166 166 166
-1.29551 -0.320547 2.1534 -0.518362 -0.486111 -0.70356 141 141 141
-1.28771 -0.320507 2.1479 -0.48244 -0.478377 -0.733762 112 112 112
-1.27935 -0.320685 2.1427 -0.515177 -0.492632 -0.701361 132 132 132
-1.27189 -0.320954 2.13707 -0.530293 -0.467553 -0.707236 160 160 160
-1.26213 -0.322621 2.1308 -0.543759 -0.462146 -0.700534 91 91 91
-1.25511 -0.322089 2.1245 -0.497181 -0.520951 -0.693845 95 95 95
-1.23651 -0.321004 2.11169 -0.574386 -0.427409 -0.698142 100 100 100
-1.22863 -0.320925 2.10628 -0.559122 -0.450501 -0.696011 157 157 157
-1.2163 -0.32806 2.10126 -0.567986 -0.443618 -0.69325 98 98 98
-1.21029 -0.321939 2.09341 -0.516953 -0.456438 -0.724171 96 96 96
-1.20377 -0.329187 2.09346 -0.534865 -0.437736 -0.722708 93 93 93
-1.19766 -0.328734 2.08775 -0.511344 -0.424041 -0.747473 109 109 109
-1.18952 -0.328594 2.08166 -0.484793 -0.424585 -0.764659 156 156 156
-1.18161 -0.328595 2.07665 -0.512356 -0.467037 -0.720672 165 165 165
-1.17147 -0.3286 2.07162 -0.600899 -0.40778 -0.687485 130 130 130
-1.15996 -0.329275 2.06228 -0.520808 -0.462446 -0.717567 161 161 161
-1.15003 -0.329782 2.057 -0.577959 -0.445805 -0.683536 132 132 132
-1.33328 -0.301999 2.16979 -0.556702 -0.428659 -0.711571 134 134 134
-1.32691 -0.309643 2.17025 -0.538172 -0.467399 -0.701362 94 94 94
-1.3259 -0.302446 2.16455 -0.538726 -0.445407 -0.715113 169 169 169
-1.32037 -0.309632 2.16429 -0.483146 -0.389636 -0.784062 130 130 130
-1.31319 -0.30958 2.15949 -0.558235 -0.430348 -0.709348 178 178 178
-1.30567 -0.309829 2.15429 -0.55572 -0.435963 -0.707892 152 152 152
-1.28589 -0.313513 2.14252 -0.565135 -0.449055 -0.692078 151 151 151
-1.27824 -0.313441 2.13701 -0.537781 -0.448382 -0.713964 121 121 121
-1.27035 -0.313991 2.1308 -0.603653 -0.48476 -0.632939 94 94 94
-1.26091 -0.315218 2.12516 -0.519522 -0.476539 -0.70923 79 79 79
-1.2619 -0.308291 2.11823 -0.521215 -0.53548 -0.664527 125 125 125
-1.24799 -0.317478 2.11695 -0.561699 -0.510705 -0.650903 94 94 94
-1.25497 -0.310022 2.11524 -0.520037 -0.495204 -0.695942 130 130 130
-1.24701 -0.309972 2.10987 -0.458585 -0.486245 -0.743818 150 150 150
-1.23994 -0.317444 2.11167 -0.541163 -0.471155 -0.696531 110 110 110
-1.24562 -0.313247 2.11293 -0.492601 -0.354242 -0.794895 115 115 115
-1.23718 -0.31289 2.10625 -0.494149 -0.354202 -0.793951 147 147 147
-1.22817 -0.313644 2.09941 -0.565641 -0.380378 -0.731685 142 142 142
-1.22374 -0.316946 2.09962 -0.559093 -0.45452 -0.693417 129 129 129
-1.21584 -0.317491 2.09509 -0.548545 -0.470813 -0.690966 124 124 124
-1.20917 -0.314502 2.08785 -0.523386 -0.449085 -0.724147 138 138 138
-1.19546 -0.321326 2.0819 -0.523896 -0.443201 -0.727397 141 141 141
-1.20333 -0.321615 2.08781 -0.516584 -0.431464 -0.739581 109 109 109
-1.20142 -0.314196 2.08193 -0.528365 -0.445154 -0.722958 135 135 135
-1.18743 -0.321254 2.07632 -0.508505 -0.446854 -0.736033 152 152 152
-1.17988 -0.320819 2.07078 -0.529684 -0.447388 -0.72061 143 143 143
-1.1719 -0.320454 2.06506 -0.493596 -0.439013 -0.750753 156 156 156
-1.16419 -0.320108 2.05965 -0.490777 -0.464543 -0.737115 120 120 120
-1.16417 -0.320435 2.05984 -0.492421 -0.466591 -0.734721 121 121 121
-1.33927 -0.295059 2.16972 -0.514061 -0.431003 -0.741605 88 88 88
-1.33171 -0.29499 2.16417 -0.566639 -0.416337 -0.711045 174 174 174
-1.32458 -0.295339 2.15876 -0.547181 -0.445736 -0.708458 153 153 153
-1.31864 -0.302454 2.15901 -0.519748 -0.437242 -0.73395 164 164 164
-1.31128 -0.302217 2.15396 -0.552081 -0.448127 -0.703128 129 129 129
-1.30387 -0.302825 2.14896 -0.579468 -0.402971 -0.708401 164 164 164
-1.29532 -0.30353 2.14362 -0.579145 -0.405982 -0.706944 153 153 153
-1.29176 -0.30477 2.14131 -0.538337 -0.41263 -0.734799 116 116 116
-1.28395 -0.305457 2.1367 -0.582281 -0.407093 -0.703721 86 86 86
-1.26098 -0.308309 2.11775 -0.500547 -0.580193 -0.642517 128 128 128
-1.26102 -0.301478 2.11164 -0.418642 -0.444768 -0.791783 162 162 162
-1.24168 -0.305517 2.10528 -0.422233 -0.260533 -0.868241 166 166 166
-1.24038 -0.304622 2.10395 -0.482833 -0.375262 -0.791234 174 174 174
-1.23269 -0.309148 2.10128 -0.500944 -0.415893 -0.759005 169 169 169
-1.22229 -0.30995 2.09371 -0.559921 -0.393019 -0.7294 93 93 93
-1.21452 -0.310467 2.08903 -0.544077 -0.46892 -0.695769 104 104 104
-1.20758 -0.30705 2.08188 -0.50286 -0.456513 -0.733981 112 112 112
-1.19301 -0.314071 2.07663 -0.564329 -0.45612 -0.688105 178 178 178
-1.19964 -0.306912 2.07645 -0.592643 -0.415637 -0.689942 162 162 162
-1.18604 -0.313822 2.07025 -0.510804 -0.471338 -0.718971 169 169 169
-1.17838 -0.313405 2.06524 -0.527417 -0.453126 -0.718685 136 136 136
-1.17831 -0.313344 2.065 -0.50818 -0.440562 -0.740039 131 131 131
-1.17843 -0.313335 2.06469 -0.516452 -0.443242 -0.732676 131 131 131
-1.17103 -0.312912 2.05947 -0.508664 -0.434139 -0.743494 133 133 133
-1.17086 -0.313015 2.05914 -0.539277 -0.420531 -0.729612 131 131 131
-1.14339 -0.316432 2.04304 -0.890638 -0.129705 -0.435821 75 75 75
-1.40478 -0.28195 2.19698 -0.295111 -0.253507 -0.921219 6 6 6
-1.36076 -0.288443 2.18064 -0.511069 -0.484973 -0.709654 83 83 83
-1.35237 -0.288388 2.1755 -0.532833 -0.454599 -0.713743 81 81 81
-1.3451 -0.288098 2.16986 -0.536226 -0.45677 -0.709805 108 108 108
-1.33734 -0.287738 2.16399 -0.55881 -0.44401 -0.700419 146 146 146
-1.33003 -0.288098 2.15858 -0.558314 -0.429492 -0.709804 168 168 168
-1.31705 -0.295407 2.15363 -0.544574 -0.454165 -0.705105 114 114 114
-1.32264 -0.288347 2.15348 -0.544877 -0.450796 -0.707031 98 98 98
-1.30967 -0.295386 2.14815 -0.565433 -0.481907 -0.669366 133 133 133
-1.30189 -0.296056 2.14355 -0.5664 -0.453033 -0.688442 158 158 158
-1.28987 -0.297611 2.13613 -0.487093 -0.384772 -0.784022 92 92 92
-1.29609 -0.290358 2.13498 -0.466797 -0.548126 -0.694016 135 135 135
-1.25532 -0.294701 2.10967 -0.676604 -0.237988 -0.696828 141 141 141
-1.2524 -0.293887 2.10886 -0.576583 -0.177793 -0.79746 132 132 132
-1.24343 -0.297581 2.10508 -0.401886 -0.129738 -0.906452 119 119 119
-1.21369 -0.299963 2.08086 -0.503211 -0.476344 -0.721024 89 89 89
-1.20611 -0.299429 2.07535 -0.527206 -0.419817 -0.738788 123 123 123
-1.19879 -0.299401 2.07037 -0.491616 -0.442294 -0.750126 120 120 120
-1.19232 -0.30684 2.07067 -0.509932 -0.452991 -0.731278 156 156 156
-1.19098 -0.299401 2.06525 -0.506769 -0.449999 -0.735314 138 138 138
-1.18467 -0.306326 2.06472 -0.504435 -0.44829 -0.737958 129 129 129
-1.17716 -0.305903 2.05967 -0.507347 -0.450866 -0.734384 104 104 104
-1.17693 -0.30593 2.05957 -0.511938 -0.431203 -0.742956 103 103 103
-1.39461 -0.274966 2.19312 -0.404003 -0.309085 -0.860958 15 15 15
-1.40182 -0.274846 2.19567 -0.281344 -0.219968 -0.934055 7 7 7
-1.35843 -0.281279 2.17515 -0.516432 -0.480325 -0.708934 86 86 86
-1.3511 -0.281209 2.16996 -0.528746 -0.466262 -0.709244 89 89 89
-1.34347 -0.28082 2.16393 -0.530479 -0.467164 -0.707355 143 143 143
-1.33594 -0.280729 2.15827 -0.505632 -0.462819 -0.728104 146 146 146
-1.32839 -0.281162 2.1531 -0.568009 -0.418163 -0.708876 92 92 92
-1.32096 -0.281552 2.1478 -0.582848 -0.444916 -0.679954 149 149 149
-1.30643 -0.282517 2.1363 -0.598194 -0.571701 -0.561536 166 166 166
-1.2948 -0.2837 2.12969 -0.366746 -0.513017 -0.776087 122 122 122
-1.26694 -0.291811 2.11295 -0.377377 -0.179562 -0.908484 140 140 140
-1.26836 -0.28576 2.10634 -0.47441 -0.432867 -0.766526 140 140 140
-1.2563 -0.288685 2.1032 -0.588183 -0.431083 -0.684258 140 140 140
-1.22139 -0.293825 2.09127 -0.698096 -0.194801 -0.688995 137 137 137
-1.21923 -0.296017 2.08529 -0.605494 -0.38364 -0.697278 112 112 112
-1.21389 -0.289318 2.08109 -0.720195 -0.0822232 -0.688882 147 147 147
-1.18338 -0.298913 2.05951 -0.509641 -0.456681 -0.729184 96 96 96
-1.17531 -0.298511 2.05409 -0.522348 -0.462885 -0.716163 104 104 104
-1.15109 -0.300093 2.04042 -0.618438 -0.496693 -0.608958 113 113 113
-1.40687 -0.267849 2.1962 -0.350087 -0.290511 -0.890529 8 8 8
-1.36474 -0.274315 2.17476 -0.560581 -0.440909 -0.700962 95 95 95
-1.35669 -0.274185 2.16946 -0.467825 -0.441474 -0.765664 93 93 93
-1.34923 -0.273919 2.16407 -0.533203 -0.451317 -0.715547 105 105 105
-1.34211 -0.27373 2.15844 -0.549638 -0.457786 -0.698806 112 112 112
-1.33461 -0.273604 2.15319 -0.506583 -0.428193 -0.748348 107 107 107
-1.32741 -0.273262 2.14795 -0.547233 -0.44958 -0.705984 120 120 120
-1.3139 -0.27485 2.13448 -0.552206 -0.642509 -0.531273 138 138 138
-1.30088 -0.274563 2.12831 -0.479901 -0.273677 -0.833544 130 130 130
-1.30507 -0.274624 2.12565 -0.432427 -0.676434 -0.596191 131 131 131
-1.30281 -0.27384 2.10592 -0.466794 0.0435652 -0.883293 139 139 139
-1.22775 -0.287514 2.08372 -0.612205 -0.657874 -0.438643 141 141 141
-1.22852 -0.280232 2.07499 -0.771378 -0.622148 -0.133823 143 143 143
-1.21902 -0.283827 2.07333 -0.435464 -0.639396 -0.633675 142 142 142
-1.18603 -0.283977 2.05216 -0.478143 -0.445606 -0.756845 86 86 86
-1.1796 -0.29152 2.05234 -0.518333 -0.464244 -0.718198 89 89 89
-1.1717 -0.288046 2.04236 -0.465869 -0.423457 -0.776949 83 83 83
-1.37807 -0.266701 2.17996 -0.526358 -0.432717 -0.731918 107 107 107
-1.38362 -0.259826 2.18 -0.539271 -0.449733 -0.711988 121 121 121
-1.3759 -0.259931 2.17473 -0.538356 -0.430912 -0.724215 137 137 137
-1.37067 -0.266831 2.17463 -0.550643 -0.433281 -0.713484 137 137 137
-1.36258 -0.26737 2.16973 -0.481861 -0.453305 -0.749883 90 90 90
-1.3554 -0.267057 2.16401 -0.529762 -0.47288 -0.704086 84 84 84
-1.34785 -0.266834 2.15862 -0.550142 -0.44613 -0.705912 114 114 114
-1.34039 -0.267242 2.15319 -0.53039 -0.444115 -0.722113 177 177 177
-1.33296 -0.266474 2.14819 -0.479589 -0.413608 -0.773901 95 95 95
-1.30621 -0.267527 2.1284 -0.46902 -0.268711 -0.841317 135 135 135
-1.30636 -0.265523 2.09656 -0.652374 0.134777 -0.745817 138 138 138
-1.27646 -0.27143 2.07891 -0.633259 -0.16971 -0.755104 139 139 139
-1.17795 -0.280997 2.04398 -0.505304 -0.48699 -0.712397 72 72 72
-1.1694 -0.280742 2.03706 -0.45508 -0.425308 -0.782314 88 88 88
-1.17111 -0.281963 2.0378 -0.452033 -0.421357 -0.786209 78 78 78
-1.15365 -0.280433 2.02705 -0.507945 -0.454697 -0.731603 81 81 81
-1.16112 -0.280863 2.03223 -0.507349 -0.422018 -0.751331 107 107 107
-1.39793 -0.252962 2.1866 -0.423679 -0.435387 -0.794314 104 104 104
-1.38941 -0.252681 2.17989 -0.499154 -0.498917 -0.708468 128 128 128
-1.39208 -0.251281 2.17964 -0.52683 -0.441178 -0.726507 123 123 123
-1.37422 -0.253206 2.16913 -0.53515 -0.423531 -0.730915 113 113 113
-1.36717 -0.25319 2.16385 -0.562668 -0.43721 -0.701607 143 143 143
-1.36882 -0.2601 2.16905 -0.530604 -0.463875 -0.709422 96 96 96
-1.35338 -0.260202 2.15865 -0.555561 -0.443422 -0.703369 164 164 164
-1.34659 -0.260061 2.15307 -0.582811 -0.49642 -0.643349 191 191 191
-1.33946 -0.259282 2.14646 -0.54839 -0.554156 -0.626243 95 95 95
-1.34161 -0.255713 2.11861 -0.639979 -0.0241821 -0.768012 130 130 130
-1.3107 -0.262178 2.10069 -0.619484 0.105047 -0.777949 138 138 138
-1.30957 -0.26222 2.10034 -0.681463 0.0758731 -0.727909 138 138 138
-1.30713 -0.260924 2.09328 -0.674864 0.0167373 -0.737752 139 139 139
-1.30122 -0.264932 2.0887 -0.644006 0.0330542 -0.764306 137 137 137
-1.1599 -0.273467 2.02711 -0.523113 -0.408261 -0.748115 120 120 120
-1.15165 -0.27314 2.02108 -0.481551 -0.456583 -0.748091 81 81 81
-1.14105 -0.272472 2.01567 -0.616925 -0.407831 -0.67311 160 160 160
-1.13497 -0.27345 2.01008 -0.617489 -0.369678 -0.694295 108 108 108
-1.3973 -0.244547 2.18042 -0.53584 -0.456827 -0.71006 168 168 168
-1.39063 -0.244273 2.17436 -0.496002 -0.457921 -0.73776 161 161 161
-1.38291 -0.244316 2.1697 -0.546902 -0.453148 -0.703957 187 187 187
-1.37272 -0.246273 2.16375 -0.547466 -0.443462 -0.709663 185 185 185
-1.36539 -0.246374 2.15842 -0.529158 -0.474176 -0.703669 156 156 156
-1.35915 -0.253491 2.15865 -0.500309 -0.430024 -0.751512 171 171 171
-1.35292 -0.252987 2.1533 -0.547819 -0.511708 -0.661853 190 190 190
-1.34621 -0.25267 2.14662 -0.514587 -0.56338 -0.646377 110 110 110
-1.35151 -0.251105 2.12248 -0.850488 -0.0149277 -0.525783 131 131 131
-1.33504 -0.249686 2.11383 -0.65343 -0.248188 -0.715145 130 130 130
-1.31193 -0.255103 2.10833 -0.589096 -0.237026 -0.772518 132 132 132
-1.15753 -0.266019 2.02086 -0.522404 -0.437166 -0.732107 92 92 92
-1.15063 -0.265901 2.01511 -0.53085 -0.424263 -0.73362 96 96 96
-1.38891 -0.237366 2.16889 -0.552276 -0.430855 -0.713691 180 180 180
-1.37138 -0.238763 2.15811 -0.503825 -0.454898 -0.734322 91 91 91
-1.36347 -0.239364 2.15307 -0.547077 -0.42347 -0.722066 86 86 86
-1.35857 -0.246026 2.15272 -0.531524 -0.500503 -0.683359 143 143 143
-1.34686 -0.245175 2.13988 -0.528307 -0.529141 -0.664005 91 91 91
-1.36047 -0.240105 2.1222 -0.871336 -0.488215 -0.0491841 122 122 122
-1.35843 -0.243964 2.11382 -0.913379 -0.398042 -0.0854505 132 132 132
-1.33233 -0.240868 2.1062 -0.626026 -0.176147 -0.759647 134 134 134
-1.3256 -0.24632 2.10934 -0.591987 -0.311854 -0.743168 133 133 133
-1.30005 -0.242953 2.07016 -0.398122 0.0181329 -0.917153 142 142 142
-1.15552 -0.258924 2.01585 -0.547908 -0.442474 -0.709939 98 98 98
-1.14871 -0.258795 2.01001 -0.432543 -0.47203 -0.768176 124 124 124
-1.13611 -0.255881 2.00161 -0.591494 -0.380078 -0.711108 116 116 116
-1.40659 -0.227734 2.17553 -0.546425 -0.438717 -0.713405 133 133 133
-1.39897 -0.230479 2.17271 -0.544928 -0.420482 -0.725429 172 172 172
-1.39176 -0.230414 2.16748 -0.541499 -0.453272 -0.708042 180 180 180
-1.38473 -0.230454 2.16156 -0.568327 -0.472885 -0.673338 91 91 91
-1.37667 -0.230509 2.15688 -0.484609 -0.457124 -0.745783 87 87 87
-1.35779 -0.231614 2.13402 -0.95463 -0.25261 -0.157703 116 116 116
-1.35746 -0.236875 2.13058 -0.94626 -0.30224 0.115076 105 105 105
-1.36462 -0.232406 2.12284 -0.84591 -0.512413 -0.147881 125 125 125
-1.36073 -0.234771 2.11424 -0.762864 -0.581173 -0.283329 131 131 131
-1.33492 -0.233349 2.10606 -0.582872 -0.172123 -0.794124 133 133 133
-1.16983 -0.244785 2.01664 -0.538469 -0.452783 -0.710661 99 99 99
-1.15484 -0.251434 2.00896 -0.43617 -0.477046 -0.763009 96 96 96
-1.14647 -0.25145 2.00439 -0.462389 -0.464866 -0.755047 118 118 118
-1.1465 -0.251436 2.00421 -0.444869 -0.467911 -0.763643 113 113 113
-1.13403 -0.249491 1.9961 -0.617913 -0.374428 -0.691367 117 117 117
-1.1244 -0.248532 1.98417 -0.865174 -0.115875 -0.4879 1 1 1
-1.12657 -0.252525 1.9908 -0.792358 -0.238384 -0.561554 25 25 25
-1.431 -0.221065 2.18853 -0.501925 -0.436474 -0.7467 64 64 64
-1.41831 -0.219715 2.17801 -0.495354 -0.450185 -0.742939 84 84 84
-1.41286 -0.221002 2.17528 -0.513737 -0.432494 -0.740961 114 114 114
-1.39752 -0.223579 2.16742 -0.520223 -0.454925 -0.72278 183 183 183
-1.39711 -0.223591 2.1671 -0.529341 -0.466106 -0.708903 193 193 193
-1.3902 -0.223527 2.16196 -0.480039 -0.419024 -0.770702 100 100 100
-1.38202 -0.223667 2.15644 -0.520259 -0.409706 -0.749315 88 88 88
-1.3751 -0.223581 2.15146 -0.479195 -0.505406 -0.717591 92 92 92
-1.36831 -0.225942 2.14743 -0.461723 -0.452588 -0.762874 93 93 93
-1.35951 -0.223758 2.13401 -0.906014 -0.395793 -0.149954 124 124 124
-1.36132 -0.225158 2.12512 -0.988876 -0.14265 0.0421287 124 124 124
-1.35414 -0.228617 2.11452 -0.480981 -0.424933 -0.76687 131 131 131
-1.3607 -0.227461 2.1163 -0.333871 -0.452285 -0.827024 131 131 131
-1.34738 -0.224911 2.11248 -0.703248 -0.0340709 -0.710128 131 131 131
-1.34064 -0.228746 2.10997 -0.510009 0.023961 -0.859835 131 131 131
