ply
format ascii 1.0
element vertex 735
property float x
property float y
property float z
property float nx
property float ny
property float nz
property uchar diffuse_red
property uchar diffuse_green
property uchar diffuse_blue
end_header
6.27134 -0.922617 -11.1239 -0.515822 0.147835 0.843844 239 239 239
9.78384 -0.927958 -12.8766 -0.540608 -0.445482 0.713645 0 0 0
7.32561 -0.753345 -10.747 -0.0496516 -0.30235 0.951903 253 253 253
9.74081 -0.806691 -12.8169 -0.530979 -0.523596 0.666264 0 0 0
7.34644 -0.716432 -10.7334 -0.0576361 -0.294664 0.953861 253 253 253
5.65633 -0.887521 -13.9803 -0.678171 -0.0975154 0.728406 38 38 38
6.11619 -0.754199 -11.1753 -0.383576 0.00931347 0.923462 236 236 236
9.69613 -0.76823 -12.8212 -0.387271 -0.588092 0.710048 163 163 163
6.89178 -0.715907 -11.9065 0.564341 -0.494669 0.660925 255 255 255
6.08826 -0.715792 -11.2058 -0.57969 0.0916425 0.809667 240 240 240
7.64469 -0.641941 -10.6771 -0.182584 -0.14698 0.972142 61 61 61
7.55837 -0.642208 -10.6943 -0.0383519 -0.243092 0.969245 244 244 244
6.5596 -0.68378 -11.4064 0.625991 -0.480145 0.614489 220 220 220
5.92076 -0.691947 -11.2935 0.133316 0.50971 0.849955 255 255 255
5.93452 -0.653761 -11.2881 -0.0248803 0.0694317 0.997276 253 253 253
7.62306 -0.602965 -10.6797 -0.24835 -0.0297917 0.968212 200 200 200
7.44037 -0.578098 -10.7496 -0.642118 -0.400391 0.653737 245 245 245
6.93219 -0.669012 -11.8977 -0.0252151 -0.581691 0.813019 246 246 246
6.83847 -0.63745 -11.7231 0.602227 0.208918 0.770504 244 244 244
5.80411 -0.737724 -13.7784 -0.333445 0.187064 0.924025 219 219 219
7.59998 -0.564281 -10.6888 -0.333416 0.0299957 0.942303 243 243 243
7.36033 -0.544537 -10.726 -0.759394 -0.0334728 0.64977 239 239 239
6.67171 -0.567785 -11.4568 0.765095 -0.153346 0.625391 141 141 141
7.3408 -0.506361 -10.6648 -0.555569 -0.536929 0.634863 216 216 216
7.22825 -0.517538 -10.7097 -0.518455 -0.57585 0.63214 224 224 224
7.55913 -0.482398 -10.6683 -0.731217 0.153124 0.664736 181 181 181
6.3661 -0.46404 -10.8966 -0.603046 -0.415451 0.680981 156 156 156
9.36567 -0.440844 -11.643 -0.190989 -0.680694 0.707233 107 107 107
6.3682 -0.415224 -10.7766 -0.603046 -0.415451 0.680981 144 144 144
5.76731 -0.43481 -11.2397 -0.572765 -0.428256 0.698954 146 146 146
7.06721 -0.396393 -10.6148 0.00331469 -0.840221 0.542234 190 190 190
7.01375 -0.339011 -10.6416 -0.383359 0.0685917 0.921049 147 147 147
6.59905 -0.294748 -10.7149 0.202612 0.0207327 0.97904 246 246 246
6.18264 -0.318934 -10.9285 -0.313254 -0.130375 0.940678 166 166 166
5.8777 -0.331506 -11.104 -0.497877 -0.546116 0.673703 163 163 163
8.61672 -0.264979 -11.0148 -0.447855 0.701057 0.554928 241 241 241
8.56576 -0.241558 -11.0179 -0.552134 0.637899 0.536874 244 244 244
8.23054 -0.278495 -10.8054 0.313743 0.0374755 0.948768 252 252 252
7.99164 -0.251255 -10.7388 0.191517 0.535389 0.822606 255 255 255
6.29411 -0.280321 -10.8621 -0.427367 0.628345 0.650031 173 173 173
6.29131 -0.25633 -10.855 -0.114623 0.0461983 0.992334 144 144 144
8.03312 -0.235318 -10.7555 -0.436015 0.476504 0.763436 212 212 212
7.94347 -0.207957 -10.805 -0.476264 0.472625 0.741484 255 255 255
7.89823 -0.227463 -10.8509 0.251307 0.785795 0.565129 255 255 255
7.79044 -0.220426 -10.7506 -0.354934 0.738762 0.572933 255 255 255
6.92843 -0.229089 -10.6602 -0.679127 0.172267 0.71352 248 248 248
6.76105 -0.230252 -10.7477 -0.0079654 0.697182 0.71685 255 255 255
6.65625 -0.219355 -10.6722 -0.256773 -0.377484 0.889704 255 255 255
8.93461 -0.202539 -12.5749 0.217616 0.0155294 0.975911 240 240 240
8.85618 -0.18361 -11.1529 -0.491527 0.0226015 0.870569 215 215 215
8.928 -0.161 -12.5362 -0.0961386 6.65691e-005 0.995368 240 240 240
8.88314 -0.16099 -12.5596 -0.481458 -0.0791131 0.872891 243 243 243
8.66988 -0.140735 -12.767 -0.830279 0.0182831 0.557048 255 255 255
8.90616 -0.107755 -11.1696 -0.203297 -0.0182596 0.978947 201 201 201
8.74917 -0.114461 -12.7009 0.0723363 -0.00603993 0.997362 251 251 251
8.7004 -0.114689 -12.7276 -0.797673 0.0461134 0.601324 253 253 253
8.74251 -0.0495479 -12.6838 -0.83057 0.0640748 0.553216 251 251 251
8.69178 -0.0497103 -12.7372 -0.830238 -0.0247242 0.55686 254 254 254
9.4114 -0.00970103 -11.9989 -0.0766098 -0.0147316 0.996952 206 206 206
8.76395 -0.00835697 -12.6899 0.34766 0.0104507 0.937562 251 251 251
8.71841 -0.00834068 -12.6935 -0.0776784 0.0214677 0.996747 252 252 252
9.47453 0.0524755 -11.9088 -0.831171 0.01443 0.555829 188 188 188
8.6929 0.0329498 -12.7241 -0.830925 -0.0202472 0.556016 253 253 253
6.59842 0.0120598 -10.7844 -0.0037442 -0.0153729 0.999875 255 255 255
9.5227 0.101592 -11.9636 -0.85502 0.0870611 0.511236 184 184 184
9.42544 0.118986 -12.0035 -0.13433 -0.00474137 0.990925 196 196 196
9.15709 0.104465 -12.1523 -0.846838 -0.00135441 0.53185 222 222 222
5.8325 0.135168 -11.8231 0.372753 0.218196 0.901912 149 149 149
5.77977 0.136007 -11.8069 0.36235 0.185765 0.913342 154 154 154
8.78079 0.185933 -12.1404 -0.0855121 0.00872671 0.996299 245 245 245
8.73319 0.185302 -12.1364 -0.0754873 0.0145495 0.997041 244 244 244
5.80611 0.175228 -11.8177 0.390876 0.183137 0.90204 153 153 153
5.8234 0.174546 -11.7947 -0.0167474 0.241747 0.970195 148 148 148
5.75891 0.175145 -11.8017 0.202958 0.276105 0.939454 139 139 139
8.96023 0.224321 -12.1112 -0.114237 -0.00649063 0.993432 234 234 234
8.92515 0.198278 -12.1488 -0.767209 0.0521681 0.639273 236 236 236
8.73575 0.264155 -12.1354 -0.0338309 -0.00377562 0.99942 245 245 245
8.66838 0.280424 -12.2585 0.145387 -0.0234019 0.989098 249 249 249
8.75393 0.30248 -12.1211 0.0354488 -0.00144648 0.99937 246 246 246
8.71942 0.302865 -12.1341 0.3281 0.0717988 0.94191 244 244 244
5.62218 0.296503 -11.7103 -0.505614 -0.0277834 0.862312 162 162 162
8.90116 0.3456 -12.2246 0.137509 0.0361289 0.989841 238 238 238
8.73532 0.342832 -12.14 -0.0796324 0.0415761 0.995957 244 244 244
6.36752 0.320999 -10.9154 -0.48827 -0.00353539 0.872685 136 136 136
9.54561 0.423997 -11.9455 0.546026 2.89101e-005 0.837768 180 180 180
8.82759 0.422625 -12.1402 -0.512634 -0.012475 0.858517 242 242 242
8.73587 0.422185 -12.1376 -0.0401895 -0.013771 0.999097 247 247 247
8.73586 0.422256 -12.1398 -0.0331776 -0.00673438 0.999427 247 247 247
6.38714 0.407412 -10.9048 -0.476854 2.95555e-006 0.878983 137 137 137
8.84183 0.49042 -12.1685 -0.00947006 -0.013668 0.999862 241 241 241
8.78123 0.501334 -12.14 -0.0425488 -0.0118713 0.999024 242 242 242
8.80473 0.461995 -12.1438 -0.00490078 0.00991059 0.999939 244 244 244
8.75806 0.462435 -12.146 -0.401131 -0.0517724 0.914557 246 246 246
8.73612 0.501111 -12.1354 -0.0335541 -0.0062338 0.999417 247 247 247
6.36349 0.467636 -10.9177 -0.475555 0.00115041 0.879685 137 137 137
9.3634 0.508488 -12.1039 -0.619562 0.00579967 0.784926 203 203 203
8.90622 0.528491 -12.1382 0.368317 -0.172167 0.91362 237 237 237
8.80358 0.541053 -12.1451 -0.040592 0.0339554 0.998599 240 240 240
8.75839 0.540796 -12.1401 -0.191097 0.0194472 0.981379 243 243 243
8.75866 0.540684 -12.1371 -0.086557 0.0218706 0.996007 243 243 243
6.3866 0.48408 -10.9048 -0.477166 -0.00762097 0.87878 141 141 141
9.31407 0.560643 -12.1332 -0.559939 -0.0278472 0.828066 208 208 208
8.82687 0.580315 -12.1387 -0.54363 0.0137148 0.839213 239 239 239
6.36659 0.522726 -10.9152 -0.483253 0.02568 0.875104 140 140 140
7.93035 0.562808 -11.2007 -0.680285 -0.456 0.573826 255 255 255
7.53127 0.58387 -10.9169 -0.66064 0.402527 0.633662 255 255 255
6.38663 0.561375 -10.9041 -0.503916 -0.0214843 0.863486 139 139 139
7.02996 0.582317 -10.457 -0.614354 -0.421177 0.667217 244 244 244
6.91866 0.605962 -10.4519 -0.351252 -0.691305 0.631443 230 230 230
6.7013 0.599755 -10.6194 -0.577389 -0.528821 0.62207 240 240 240
6.54653 0.625463 -10.7466 0.0379896 -0.249879 0.967532 250 250 250
6.38473 0.606411 -10.9062 -0.497618 0.0146015 0.867273 137 137 137
6.94888 0.61362 -10.3088 -0.427941 -0.685124 0.589467 228 228 228
6.72951 0.636678 -10.6101 -0.649502 -0.4079 0.641689 228 228 228
6.67401 0.636483 -10.6195 -0.591305 -0.508523 0.62591 227 227 227
9.18613 0.678737 -10.8988 -0.460198 -0.745012 0.482882 60 60 60
7.51128 0.706113 -10.9961 -0.771715 0.0329425 0.635115 104 104 104
6.92533 0.649671 -10.236 -0.422419 -0.70557 0.568976 128 128 128
6.27255 0.727733 -10.9651 -0.486072 -0.0289949 0.873438 139 139 139
8.5326 0.737315 -10.9463 -0.334474 0.247678 0.909276 178 178 178
7.74483 0.744894 -10.9638 -0.541696 -0.635783 0.54986 154 154 154
7.56565 0.743641 -10.9844 0.350699 -0.219161 0.910483 180 180 180
6.5938 0.708172 -10.5957 -0.710653 -0.205015 0.673009 76 76 76
6.48801 0.725688 -10.8406 -0.557116 0.236976 0.795905 130 130 130
6.34529 0.729735 -10.9323 -0.47405 0.239351 0.847341 136 136 136
6.26295 0.7397 -10.9936 -0.234826 0.0508521 0.970706 149 149 149
8.53106 0.772032 -10.9874 -0.327793 -0.0258379 0.944396 183 183 183
8.31047 0.787965 -11.07 -0.174092 -0.756035 0.630954 184 184 184
7.55175 0.788114 -10.9887 -0.329772 0.163332 0.929824 181 181 181
7.51272 0.78898 -11.0183 0.335893 0.148168 0.930173 101 101 101
7.4883 0.805536 -11.0113 -0.127414 -0.752276 0.646411 70 70 70
7.09182 0.879511 -12.2603 -0.517033 0.535029 0.668148 171 171 171
7.56461 0.822921 -10.9475 -0.309562 -0.538679 0.783579 185 185 185
7.44092 0.833891 -11.0515 -0.310003 -0.799424 0.514606 150 150 150
7.09135 0.928922 -12.2871 0.200601 0.572934 0.794674 196 196 196
7.12533 0.919104 -12.2869 0.641097 -0.0408507 0.766372 197 197 197
6.55715 0.809213 -10.5779 -0.545544 -0.546557 0.63534 164 164 164
6.55926 0.807844 -10.5693 -0.551273 -0.565849 0.613117 179 179 179
6.5595 0.807782 -10.5683 -0.551252 -0.565856 0.613131 165 165 165
6.533 0.803011 -10.5465 -0.560149 -0.549372 0.620019 141 141 141
6.5276 0.804386 -10.5687 -0.540026 -0.566487 0.622466 138 138 138
9.46561 0.963869 -12.4742 -0.603663 -0.00589417 0.797218 0 0 0
8.11292 0.952063 -12.2537 -0.537287 0.239874 0.808568 170 170 170
7.81075 0.927795 -12.1622 0.0786194 0.428622 0.900057 173 173 173
7.72525 0.930079 -12.1627 0.0109739 0.185444 0.982593 166 166 166
7.53471 0.854661 -10.9982 -0.742809 0.197633 0.639668 187 187 187
7.16505 0.966966 -12.2697 -0.587455 -0.211875 0.781029 188 188 188
7.1147 0.969081 -12.2879 0.295711 0.0294848 0.954822 190 190 190
7.33503 0.970874 -12.0968 0.485692 0.0371173 0.873341 179 179 179
7.27597 1.00882 -12.1475 -0.765051 0.0713376 0.640007 169 169 169
7.23532 0.979235 -12.1929 -0.765296 0.0543585 0.64138 88 88 88
7.19192 1.00699 -12.2543 -0.768812 0.000403584 0.639475 161 161 161
7.14782 1.02014 -12.2797 0.267823 0.000491757 0.963468 190 190 190
6.1866 0.987211 -11.9768 -0.357504 0.0727908 0.931071 145 145 145
6.145 0.987066 -11.9617 0.365679 -0.0545833 0.929139 142 142 142
6.05202 0.986961 -11.9194 0.305725 -0.0487317 0.950872 154 154 154
5.4838 0.985138 -11.6936 -0.623253 -0.00888872 0.78197 34 34 34
7.97016 1.04876 -12.2216 0.0391911 -0.864621 0.500894 191 191 191
7.33837 1.05116 -12.1081 0.553005 0.0358657 0.832406 180 180 180
7.24237 1.04635 -12.1951 -0.762475 0.0787489 0.642207 99 99 99
7.17139 1.06234 -12.287 -0.577899 0.102007 0.809708 183 183 183
6.34044 1.0245 -11.9807 -0.410261 -0.149292 0.899665 144 144 144
9.37556 1.08211 -12.5267 0.326455 0.01172 0.94514 105 105 105
9.29744 1.07433 -12.5159 -0.532092 -0.0525916 0.845052 149 149 149
7.33897 1.08832 -12.0649 0.00014843 0.0467341 0.998907 181 181 181
7.28226 1.07507 -12.1377 -0.749752 0.151464 0.644151 176 176 176
7.21286 1.08091 -12.2316 -0.756761 0.107635 0.644769 110 110 110
7.13478 1.10516 -12.325 0.345865 -0.0641705 0.936087 199 199 199
6.35939 1.06663 -11.9908 -0.563535 -0.0913498 0.821026 152 152 152
7.32292 1.13061 -12.0946 0.194154 0.00932972 0.980927 181 181 181
7.15135 1.14581 -12.2829 0.0797058 -0.0937519 0.9924 180 180 180
7.04363 1.13869 -12.2977 -0.602941 -0.507295 0.615723 177 177 177
6.51216 1.1085 -11.5871 -0.624155 -0.0230441 0.78096 121 121 121
7.34348 1.17165 -12.1156 0.430778 0.0396033 0.901588 182 182 182
7.17459 1.18558 -12.2764 -0.664721 -0.389522 0.637509 175 175 175
6.51008 1.15172 -11.5565 -0.213878 0.111869 0.970434 196 196 196
9.38166 1.21318 -12.5042 -0.85479 -0.0154372 0.518745 64 64 64
7.32451 1.20969 -12.0789 0.0842343 0.237685 0.967683 179 179 179
6.45114 1.16087 -11.5337 -0.103404 -0.495895 0.862204 220 220 220
7.30108 1.2503 -12.0846 -0.750379 0.135105 0.647053 188 188 188
6.64233 1.22333 -11.3546 -0.698813 -0.00363866 0.715296 82 82 82
6.42254 1.30693 -11.4953 -0.403654 -0.00115252 0.914911 222 222 222
6.45953 1.30619 -11.4704 0.0241471 0.280657 0.959504 228 228 228
7.12738 1.40896 -12.1012 0.506524 -0.0661309 0.859686 29 29 29
6.47218 1.35691 -11.5041 -0.0773471 0.518036 0.851854 228 228 228
6.48367 1.37503 -11.5743 -0.319705 0.362746 0.875331 222 222 222
6.37506 1.35121 -11.5154 -0.434954 -0.00561731 0.900435 227 227 227
7.19498 1.44892 -12.0825 -0.729871 -0.00641354 0.683555 43 43 43
7.11047 1.4568 -12.1455 -0.568786 -0.18608 0.80116 27 27 27
6.38669 1.40085 -11.6405 -0.29911 0.28344 0.911151 98 98 98
6.35587 1.39238 -11.5385 0.07021 0.118452 0.990475 192 192 192
7.11966 1.50052 -12.1224 -0.0586713 0.505393 0.860892 27 27 27
7.30112 1.56715 -12.0601 -0.730514 0.032701 0.682114 180 180 180
6.70299 1.57005 -11.4571 -0.708187 0.0138817 0.705888 29 29 29
6.73114 1.59213 -11.4292 -0.728812 0.0431228 0.683355 2 2 2
5.48299 1.65472 -11.6995 -0.56397 -0.00319375 0.825789 30 30 30
6.74168 1.63877 -11.4127 -0.719951 0.000746372 0.694025 0 0 0
6.54469 1.64524 -11.5047 -0.643524 -0.466829 0.606586 0 0 0
7.34439 1.82656 -11.9817 -0.2767 -0.847008 0.453889 0 0 0
6.419 -1.89753 -11.0657 -0.5373 0.685141 0.491824 0 0 0
6.461 -1.86426 -11.066 -0.543603 0.685607 0.484188 0 0 0
7.04904 -1.78786 -10.8849 -0.821064 0.0135732 0.570674 6 6 6
7.05992 -1.79258 -10.8907 -0.833623 0.00258457 0.552328 6 6 6
6.99491 -1.80962 -10.9496 -0.675707 -0.266996 0.68712 9 9 9
6.52312 -1.80537 -10.8409 -0.564905 0.653313 0.504049 0 0 0
7.04798 -1.73851 -10.8504 -0.88858 -0.00463869 0.458698 12 12 12
7.01287 -1.77545 -10.9144 -0.677731 -0.265405 0.685741 70 70 70
6.48812 -1.7648 -11.0331 -0.740794 0.176001 0.648266 182 182 182
6.32256 -1.80045 -11.2164 -0.678902 0.0724052 0.73065 0 0 0
6.4811 -1.72822 -11.0275 -0.830185 -0.202361 0.519463 244 244 244
5.98119 -1.76204 -11.4097 -0.816824 0.311862 0.485325 0 0 0
5.99082 -1.78977 -11.3756 -0.811162 0.33148 0.481807 0 0 0
5.93649 -1.76252 -11.4202 -0.138218 0.311299 0.940207 0 0 0
5.89331 -1.76274 -11.4278 -0.692386 0.235375 0.682056 0 0 0
7.22813 -1.69296 -10.8358 -0.405158 -0.624682 0.667547 0 0 0
7.01647 -1.67526 -10.9113 0.0316298 0.229246 0.972854 116 116 116
6.91024 -1.68412 -10.9478 -0.87806 -0.0242472 0.477936 225 225 225
6.00693 -1.74737 -11.3723 -0.740592 0.45766 0.492007 0 0 0
5.91515 -1.72529 -11.4349 -0.338657 0.365472 0.86703 0 0 0
5.92346 -1.7262 -11.4482 0.392522 0.324162 0.860724 0 0 0
5.84358 -1.71886 -11.4077 -0.163873 0.872736 0.459868 0 0 0
5.71703 -1.75213 -11.5976 -0.614316 0.509576 0.602452 0 0 0
5.64875 -1.75765 -11.6176 -0.712354 0.325037 0.622015 0 0 0
7.34232 -1.6138 -10.7672 -0.640627 -0.373033 0.671151 220 220 220
7.07754 -1.61734 -10.8251 -0.254894 0.0627409 0.964931 237 237 237
5.91227 -1.66911 -11.3649 -0.58695 -0.0910016 0.804493 37 37 37
5.78156 -1.72132 -11.6166 -0.842621 0.146375 0.518232 0 0 0
5.66491 -1.7211 -11.6594 -0.722515 0.31452 0.61567 0 0 0
7.04937 -1.59339 -10.85 -0.751612 0.027168 0.659046 248 248 248
5.86302 -1.65531 -11.4768 -0.720812 -0.357492 0.593826 204 204 204
5.82814 -1.64656 -11.5317 -0.714401 -0.161902 0.680749 220 220 220
5.7265 -1.65427 -11.637 -0.291243 -0.255614 0.921867 162 162 162
5.69646 -1.69322 -11.6507 -0.650366 -0.210878 0.729763 1 1 1
5.67261 -1.67613 -11.6819 -0.14299 -0.748267 0.647804 53 53 53
5.65902 -1.70022 -11.7426 -0.812425 -0.157614 0.561359 11 11 11
5.36671 -1.71929 -11.9221 -0.46305 0.698269 0.545899 0 0 0
6.97983 -1.55566 -10.8599 -0.729654 0.33941 0.593638 238 238 238
6.2003 -1.54145 -10.9489 -0.573292 -0.398975 0.71565 245 245 245
6.14408 -1.54707 -11.0401 -0.458965 -0.067209 0.885909 247 247 247
5.84167 -1.60744 -11.4496 -0.690088 -0.420257 0.589205 252 252 252
5.80584 -1.59902 -11.4848 -0.700988 -0.422599 0.574479 250 250 250
5.7958 -1.60727 -11.5198 -0.720438 -0.267338 0.639921 251 251 251
5.73784 -1.63612 -11.6534 -0.299417 -0.665218 0.683984 239 239 239
5.64952 -1.63661 -11.6817 -0.14377 -0.747331 0.648711 228 228 228
5.11965 -1.70265 -12.219 -0.542483 0.679412 0.494076 0 0 0
7.08491 -1.48915 -10.8444 -0.415366 0.755089 0.50726 5 5 5
6.43142 -1.51812 -11.0536 -0.290838 0.828036 0.479343 125 125 125
6.16172 -1.50732 -11.0252 0.0189932 -0.245893 0.969111 160 160 160
5.98823 -1.50937 -11.0841 -0.845701 0.159059 0.509401 185 185 185
5.86685 -1.53516 -11.1937 -0.849547 0.0491405 0.525219 240 240 240
5.66373 -1.56319 -11.4912 -0.70255 -0.198293 0.683449 248 248 248
5.5388 -1.56431 -11.5737 -0.765871 -0.287102 0.575338 245 245 245
5.41567 -1.59375 -11.6534 -0.743734 -0.313711 0.590293 238 238 238
7.0256 -1.4846 -10.8746 -0.700342 0.368242 0.611489 11 11 11
5.78102 -1.48295 -11.2493 -0.792396 0.0703454 0.605938 29 29 29
5.72105 -1.5395 -11.4493 -0.468235 -0.357789 0.807925 248 248 248
6.75815 -1.44655 -10.9439 -0.764917 0.120994 0.632663 237 237 237
6.59255 -1.44811 -11.0416 -0.242038 0.0257616 0.969925 253 253 253
6.15671 -1.44632 -11.0199 -0.746424 -0.23047 0.624288 0 0 0
5.79468 -1.44025 -11.2524 -0.814313 0.124492 0.566919 0 0 0
5.71306 -1.4838 -11.45 -0.681281 -0.0381376 0.731028 5 5 5
5.38278 -1.50088 -11.6568 -0.778788 0.0944914 0.620129 132 132 132
6.94223 -1.40368 -10.9013 -0.482887 0.00950283 0.875631 234 234 234
6.58935 -1.40767 -11.0455 -0.454182 0.468818 0.757581 253 253 253
5.99975 -1.42597 -11.1432 -0.698413 0.544793 0.464134 0 0 0
5.59082 -1.44229 -11.6435 -0.448166 0.772393 0.450063 0 0 0
5.429 -1.46672 -11.5845 -0.690563 0.320061 0.648601 3 3 3
5.25554 -1.46467 -11.9059 -0.198221 0.37529 0.905464 0 0 0
5.58662 -1.41251 -11.6412 -0.472826 0.662325 0.581173 0 0 0
5.54083 -1.41462 -11.7127 -0.42157 0.709776 0.564355 0 0 0
5.22385 -1.43437 -11.9175 -0.62257 0.398913 0.673257 0 0 0
5.14112 -1.46238 -11.973 -0.801453 0.238464 0.54846 4 4 4
6.93438 -1.29115 -10.9594 -0.779422 0.227729 0.583645 242 242 242
6.81387 -1.29206 -10.9448 -0.628105 -0.180408 0.756926 251 251 251
5.38558 -1.39474 -11.7823 -0.287683 0.807154 0.515501 0 0 0
5.26342 -1.40643 -11.9626 -0.593195 0.284693 0.75304 0 0 0
5.03369 -1.43186 -12.3229 -0.65392 0.0970985 0.750307 0 0 0
4.95063 -1.46495 -12.6131 -0.390196 -0.117754 0.913171 1 1 1
4.96527 -1.39067 -12.546 -0.369927 -0.323119 0.871061 0 0 0
4.93423 -1.3925 -12.5733 -0.564581 -0.18837 0.803595 0 0 0
9.6147 -1.40041 -13.294 -0.862889 -0.154821 0.481096 0 0 0
6.8402 -1.12784 -10.9069 -0.720655 0.258936 0.643124 237 237 237
9.50526 -1.22676 -13.164 0.173487 -0.509317 0.842911 197 197 197
7.25582 -0.968274 -10.8071 -0.401442 0.0920267 0.911249 233 233 233
9.71456 -1.06712 -12.9723 -0.864632 0.10452 0.491413 0 0 0
7.00897 -0.942037 -10.856 -0.681847 0.310833 0.662169 237 237 237
6.21584 -0.932191 -11.1816 -0.768641 0.31983 0.553985 252 252 252
7.33686 -0.878678 -10.7873 -0.530541 0.243935 0.811801 237 237 237
7.10583 -0.899598 -10.8212 -0.710313 -0.0138872 0.703749 244 244 244
7.02172 -0.899437 -10.852 -0.659667 0.386706 0.644436 237 237 237
7.34874 -0.828409 -10.7773 -0.376844 0.0339362 0.925655 237 237 237
7.14004 -0.84945 -10.8008 0.0178037 0.242592 0.969965 255 255 255
7.10411 -0.862733 -10.8399 -0.710608 -0.0135989 0.703457 237 237 237
7.09863 -0.853667 -10.8132 -0.524377 0.286161 0.80196 237 237 237
7.0469 -0.827197 -10.8626 -0.701513 0.536988 0.468534 212 212 212
7.37039 -0.792802 -10.779 -0.440473 0.137469 0.887178 237 237 237
7.16008 -0.805013 -10.7898 0.0200147 0.0219363 0.999559 255 255 255
7.11937 -0.81265 -10.8056 -0.586109 0.274184 0.76243 237 237 237
7.09507 -0.816884 -10.8349 -0.726991 0.257039 0.636722 237 237 237
7.07508 -0.786791 -10.8629 -0.678126 0.451198 0.580143 192 192 192
6.05062 -0.810215 -11.2351 0.0109423 0.307396 0.951519 253 253 253
9.76226 -0.853063 -12.7416 -0.889129 -0.0597254 0.453744 0 0 0
7.41544 -0.753279 -10.7383 -0.189601 -0.117276 0.974832 252 252 252
7.25885 -0.748536 -10.7898 -0.341218 0.367329 0.86524 244 244 244
7.21784 -0.748285 -10.7998 -0.33923 0.0503517 0.939355 244 244 244
7.17584 -0.749524 -10.7881 -0.549853 0.350265 0.758272 237 237 237
7.14033 -0.769647 -10.8096 -0.586885 0.0488359 0.808196 237 237 237
7.10715 -0.77374 -10.833 -0.635065 0.403117 0.658931 232 232 232
7.2386 -0.710703 -10.7908 -0.313301 0.198831 0.928606 244 244 244
7.16453 -0.725883 -10.8008 -0.611126 0.402316 0.681664 237 237 237
7.12966 -0.732519 -10.8321 -0.636166 0.372849 0.675482 221 221 221
6.05432 -0.732858 -11.2267 -0.214945 0.0410042 0.975765 242 242 242
6.00838 -0.733312 -11.2448 -0.0889198 0.202154 0.975309 253 253 253
5.90058 -0.743076 -11.2788 0.233773 0.395558 0.888191 226 226 226
5.46166 -0.875987 -14.436 -0.488847 -0.666994 0.56227 208 208 208
5.47068 -0.917013 -14.4837 -0.356 -0.638767 0.682086 199 199 199
9.74188 -0.762843 -12.7366 -0.875538 -0.214843 0.432753 0 0 0
6.02273 -0.694624 -11.1959 -0.476965 -0.311091 0.822026 229 229 229
5.41661 -0.832702 -14.4418 -0.254959 -0.613344 0.747533 201 201 201
7.41592 -0.650374 -10.743 -0.780992 -0.278186 0.559164 252 252 252
7.30445 -0.636407 -10.7636 -0.74091 -0.174324 0.648586 237 237 237
5.41677 -0.78351 -14.3824 -0.258626 -0.654045 0.710871 209 209 209
7.40156 -0.606041 -10.7496 -0.799627 -0.281822 0.530258 237 237 237
7.3056 -0.583743 -10.7536 -0.831458 -0.11308 0.543958 237 237 237
7.25718 -0.588694 -10.7768 -0.89438 0.0388254 0.445621 236 236 236
6.49487 -0.568338 -10.6805 -0.326552 0.478621 0.815038 205 205 205
5.90241 -0.614004 -11.1988 -0.252096 -0.337365 0.906991 255 255 255
5.90088 -0.61421 -11.1976 -0.25426 -0.34887 0.902021 255 255 255
7.27756 -0.563408 -10.7671 -0.861764 -0.148597 0.485058 247 247 247
5.34208 -0.638617 -14.2981 -0.25094 -0.600991 0.758841 213 213 213
6.74457 -0.45588 -10.6967 -0.604563 -0.61683 0.504008 137 137 137
5.68715 -0.493858 -11.7101 -0.240176 -0.796745 0.554538 149 149 149
5.50288 -0.497924 -11.8021 -0.694953 0.365565 0.619196 188 188 188
5.52242 -0.519703 -11.7705 -0.243334 0.384526 0.890465 204 204 204
7.5642 -0.436926 -10.6631 -0.642437 -0.495801 0.584343 142 142 142
5.86938 -0.421201 -11.2654 -0.232182 -0.415215 0.879595 161 161 161
5.49016 -0.4622 -11.8346 -0.640944 0.509474 0.574131 140 140 140
5.45321 -0.466279 -11.8697 -0.637817 0.516805 0.571053 149 149 149
7.03522 -0.376713 -10.6313 -0.749278 0.0131778 0.662124 133 133 133
6.8054 -0.36148 -10.6556 -0.638981 -0.446262 0.62654 143 143 143
6.6387 -0.392379 -10.7015 -0.621102 0.445237 0.644978 147 147 147
6.60069 -0.391682 -10.7141 -0.685901 0.272243 0.67485 156 156 156
5.48737 -0.42687 -11.8708 -0.639486 0.512426 0.573129 118 118 118
6.83073 -0.338417 -10.6286 -0.737533 -0.0348735 0.67441 150 150 150
6.19515 -0.355988 -10.8793 -0.649043 0.426751 0.629783 157 157 157
5.7409 -0.34116 -11.2124 -0.238307 -0.0783407 0.968025 166 166 166
6.99522 -0.302792 -10.638 -0.414701 0.0191322 0.909757 198 198 198
6.86073 -0.301445 -10.6358 -0.266231 0.827933 0.493607 235 235 235
6.35781 -0.309561 -10.7615 -0.481822 0.730771 0.483551 177 177 177
6.24582 -0.32101 -10.8048 -0.463925 0.558135 0.687938 167 167 167
5.52574 -0.304956 -11.8422 -0.69246 -0.0728334 0.717771 139 139 139
6.00023 -0.281717 -11.1138 -0.647054 0.0286603 0.761906 159 159 159
6.02304 -0.284924 -11.0363 -0.390158 0.691126 0.608376 161 161 161
5.52361 -0.255792 -11.6425 -0.699032 0.0418254 0.713866 120 120 120
6.81149 -0.209504 -10.7685 -0.633626 0.611725 0.473614 255 255 255
6.33334 -0.236564 -10.8579 -0.721182 0.483258 0.496345 57 57 57
6.06104 -0.228011 -11.2219 -0.0383542 0.595374 0.802533 11 11 11
6.01206 -0.223165 -11.2527 -0.397233 0.682661 0.613335 9 9 9
5.87835 -0.219953 -11.1986 -0.536713 0.488278 0.688131 7 7 7
5.8047 -0.226476 -11.1337 -0.338926 0.770877 0.53933 16 16 16
5.76436 -0.226488 -11.1545 -0.310846 0.740422 0.595945 18 18 18
5.70614 -0.242628 -11.1961 -0.226217 -0.789516 0.570518 88 88 88
5.45057 -0.259298 -12.2773 -0.66959 0.0461665 0.741295 129 129 129
8.79989 -0.205933 -12.7031 -0.345603 0.0627537 0.93628 248 248 248
6.06029 -0.187234 -11.26 0.098531 0.745538 0.659139 37 37 37
5.96769 -0.202233 -11.2186 -0.03718 0.591529 0.805426 6 6 6
5.93253 -0.188335 -11.2495 -0.277991 0.553089 0.785375 30 30 30
5.88578 -0.190699 -11.1679 -0.174855 0.778559 0.60272 17 17 17
8.86695 -0.135004 -12.6261 -0.877848 -0.030386 0.477975 243 243 243
8.81879 -0.134937 -12.6282 -0.933213 -0.0318212 0.357911 246 246 246
8.72776 -0.157163 -12.6922 -0.413414 0.00385338 0.910535 252 252 252
8.678 -0.157092 -12.6885 -0.0817105 0.0310306 0.996173 253 253 253
6.09437 -0.144929 -11.3404 -0.0109435 0.537324 0.843305 244 244 244
5.95 -0.15134 -11.2637 0.0334119 0.421324 0.906294 231 231 231
5.89273 -0.149992 -11.2969 -0.355767 0.779953 0.514882 200 200 200
5.83381 -0.148481 -11.3105 -0.362206 0.622551 0.693712 193 193 193
9.45049 -0.105428 -11.9469 -0.871319 0.00446559 0.490696 190 190 190
8.88465 -0.107186 -12.5717 -0.292167 -0.000551294 0.956367 241 241 241
8.84225 -0.0933937 -12.6231 -0.220322 0.0156284 0.975302 245 245 245
8.79618 -0.0934176 -12.6382 -0.844068 0.0664416 0.532104 247 247 247
5.37749 -0.0921292 -12.8465 -0.832258 -0.0525189 0.551896 125 125 125
5.2975 -0.122655 -13.1993 -0.689108 -0.00556411 0.724638 67 67 67
5.26641 -0.0997543 -13.1758 -0.6454 0.448033 0.618648 128 128 128
8.82385 -0.0496247 -12.6553 -0.487791 0.0345352 0.872277 246 246 246
8.8485 -0.00841242 -12.6778 0.23672 0.0771384 0.968511 245 245 245
8.87742 0.0300145 -11.3028 -0.889428 -0.0337022 0.45583 201 201 201
8.78786 0.0332758 -12.6882 -0.238792 -0.0169381 0.970923 248 248 248
8.83976 0.146745 -12.1809 -0.531074 -0.0285877 0.846843 236 236 236
5.79139 0.10926 -11.2705 -0.68079 0.465649 0.565417 159 159 159
5.78971 0.116446 -11.2073 -0.695813 0.483826 0.530807 156 156 156
5.78546 0.101692 -11.3255 -0.699827 0.313056 0.642058 159 159 159
5.87388 0.175264 -11.8455 -0.574216 -0.638316 0.512668 139 139 139
5.78567 0.150995 -11.2454 -0.695062 0.481872 0.533562 183 183 183
5.79676 0.193901 -11.2797 -0.801565 0.264304 0.536318 122 122 122
5.73593 0.214911 -11.799 0.401367 0.19497 0.894925 122 122 122
5.73241 0.214768 -11.7984 0.415457 0.187504 0.890077 122 122 122
9.01646 0.264826 -11.5123 -0.916904 0.0460547 0.396442 205 205 205
6.19631 0.227496 -11.0179 -0.487679 -0.0361874 0.872273 158 158 158
6.19633 0.226782 -10.9756 -0.410866 0.566315 0.714476 157 157 157
6.15505 0.227461 -11.0389 -0.0337 0.113231 0.992997 165 165 165
6.11243 0.227442 -11.0393 -0.0889217 0.622159 0.777824 171 171 171
5.88706 0.242115 -11.1838 -0.631607 -0.0814087 0.771003 173 173 173
5.7071 0.254861 -11.7872 0.445849 -0.190813 0.874534 121 121 121
5.66769 0.25475 -11.7689 0.468549 -0.1612 0.868606 128 128 128
6.52117 0.260763 -10.8397 -0.725496 0.0250997 0.687769 190 190 190
6.46763 0.282662 -10.8885 -0.797396 0.00428158 0.603441 146 146 146
6.08308 0.280978 -11.0801 -0.504809 0.015223 0.863097 153 153 153
6.08306 0.281036 -11.0802 -0.504156 0.0130042 0.863515 153 153 153
5.83362 0.267826 -11.21 -0.250184 -0.0607954 0.966288 108 108 108
5.72117 0.297149 -11.7916 0.38038 -0.0683289 0.922303 123 123 123
5.68937 0.295308 -11.7771 0.341872 -0.0212768 0.939506 131 131 131
6.40512 0.320131 -10.8942 -0.461072 0.0222566 0.887083 141 141 141
5.92488 0.326715 -11.1612 -0.374888 -0.00281709 0.927066 142 142 142
5.69948 0.339692 -11.7811 0.386919 -0.0161036 0.921973 132 132 132
9.47302 0.381597 -11.9391 -0.929455 -0.0169671 0.368545 180 180 180
5.67705 0.382322 -11.7709 0.420252 -0.0634271 0.905188 132 132 132
9.38334 0.446836 -12.0811 -0.912225 0.00801626 0.40961 203 203 203
8.9125 0.42475 -11.4229 -0.913213 -0.021789 0.4069 210 210 210
5.69949 0.424975 -11.7836 0.361667 0.0510477 0.930909 129 129 129
6.40626 0.445595 -10.8944 -0.462181 -0.000569114 0.886786 145 145 145
5.71185 0.493817 -11.7845 -0.281038 -0.3873 0.878076 116 116 116
8.94209 0.51073 -11.3616 -0.836854 0.0256875 0.546823 205 205 205
8.68453 0.519701 -12.0976 0.164854 -0.00157077 0.986317 242 242 242
8.6346 0.519344 -12.1115 -0.454267 0.00457068 0.890854 245 245 245
6.42568 0.484245 -10.8882 -0.368851 0.00104969 0.929488 167 167 167
5.93551 0.47556 -11.1585 -0.380887 0.0196235 0.924413 139 139 139
5.79202 0.531545 -11.8034 0.1987 -0.0573029 0.978384 126 126 126
5.73539 0.53398 -11.7946 0.233921 -0.0591802 0.970453 123 123 123
5.68404 0.53232 -11.7772 0.342172 -0.00630736 0.939616 107 107 107
8.92083 0.549229 -11.3683 -0.837032 -0.0338174 0.546107 207 207 207
8.66278 0.564748 -12.1155 -0.81534 -0.0542208 0.576439 244 244 244
8.62514 0.592375 -12.151 -0.819555 0.012481 0.572865 246 246 246
6.40598 0.522569 -10.8941 -0.46109 -0.0212768 0.887098 149 149 149
5.78603 0.577614 -11.8112 0.464816 -0.103758 0.879307 131 131 131
5.71636 0.576508 -11.7938 0.360069 0.0301162 0.932439 129 129 129
6.41934 0.585621 -10.8924 -0.446245 -0.0068584 0.894885 159 159 159
5.91006 0.563013 -11.169 -0.38073 -0.0354341 0.924007 156 156 156
5.76257 0.615053 -11.7742 0.127768 -0.232417 0.964188 130 130 130
5.73574 0.616616 -11.7909 0.271873 -0.0737934 0.9595 131 131 131
6.61736 0.602045 -10.702 -0.360788 -0.318543 0.876563 234 234 234
6.52291 0.608877 -10.7745 -0.730611 0.102908 0.674994 235 235 235
6.42353 0.605356 -10.86 0.0524248 -0.0178018 0.998466 164 164 164
5.90712 0.608257 -11.1785 -0.533939 0.645582 0.546015 152 152 152
5.7475 0.656398 -11.7799 0.00585407 0.15618 0.987711 110 110 110
5.71445 0.657501 -11.7858 0.288513 -0.00564124 0.957459 136 136 136
6.97244 0.614627 -10.2461 -0.320084 -0.77755 0.54126 228 228 228
6.57553 0.646225 -10.6994 -0.373454 0.677103 0.634084 214 214 214
6.50629 0.667731 -10.804 -0.843214 0.0821818 0.531259 113 113 113
6.4836 0.647375 -10.8353 -0.864464 -0.115974 0.489134 154 154 154
6.46154 0.667517 -10.8735 -0.749755 -0.0042984 0.661702 129 129 129
6.40448 0.645203 -10.8928 -0.437472 0.0314165 0.898683 147 147 147
5.70025 0.699842 -11.7807 0.356559 -0.159442 0.920567 142 142 142
6.90292 0.681037 -10.3591 -0.803742 0.344446 0.485136 106 106 106
6.88754 0.675248 -10.4085 -0.69303 -0.0255296 0.720456 114 114 114
6.48792 0.691866 -10.8339 -0.728205 0.055815 0.683083 135 135 135
6.45771 0.707512 -10.8717 -0.6725 0.0788278 0.735887 160 160 160
6.4175 0.707514 -10.8868 -0.351702 -0.000306553 0.936112 140 140 140
5.72259 0.741569 -11.7946 0.319188 0.0533909 0.946186 132 132 132
5.67667 0.741264 -11.7734 0.295278 -0.0623258 0.953376 134 134 134
6.21642 0.743207 -11.0139 0.226962 -0.126607 0.965639 162 162 162
8.46646 0.80856 -10.9724 0.273678 0.0758225 0.958828 115 115 115
5.72677 0.825002 -11.8027 0.317848 -0.0120932 0.948064 139 139 139
5.09311 0.940134 -13.9654 -0.329075 -0.00984818 0.944252 0 0 0
5.77729 0.867649 -11.8119 0.0428806 0.278777 0.959398 137 137 137
5.73532 0.867369 -11.7947 0.0248125 0.211569 0.977048 140 140 140
5.6878 0.862485 -11.776 0.156751 0.0782602 0.984533 140 140 140
5.13158 0.982024 -13.9549 -0.469253 -0.0079705 0.883028 5 5 5
5.07493 0.984236 -13.9733 -0.2124 0.000924316 0.977182 0 0 0
5.07526 0.984288 -13.9656 -0.4032 -0.00519482 0.915097 0 0 0
5.07002 0.983221 -13.9735 -0.330747 -0.00469281 0.943708 0 0 0
6.12177 0.945451 -11.9549 0.0441202 0.0172657 0.998877 107 107 107
5.75625 0.909892 -11.8119 0.331225 -0.0598679 0.941651 140 140 140
5.71233 0.908953 -11.794 0.305957 0.0073009 0.952017 137 137 137
5.66587 0.908489 -11.7757 0.4791 -0.074921 0.874557 132 132 132
5.14956 1.02626 -13.9439 -0.612891 -0.0200671 0.789913 46 46 46
5.09969 1.02627 -13.957 -0.253263 -0.0148961 0.967283 0 0 0
5.06254 1.02682 -13.9804 -0.354892 -0.00845164 0.934869 0 0 0
6.53605 0.951514 -11.5821 -0.757299 0.00499157 0.653049 115 115 115
6.07848 0.947959 -11.9336 0.232342 -0.00595848 0.972616 129 129 129
6.01379 0.987293 -11.9067 0.350689 -0.049807 0.935167 145 145 145
6.01411 0.987386 -11.9067 0.328193 -0.0209018 0.94438 145 145 145
6.02985 0.946924 -11.9217 0.040929 -0.0613073 0.997279 109 109 109
5.08205 1.11283 -13.9617 -0.386194 0.00584956 0.922399 0 0 0
8.55037 0.957078 -11.0276 0.245896 0.291688 0.924366 108 108 108
6.62382 0.994694 -11.4411 -0.69838 -0.00739387 0.715689 89 89 89
5.1286 1.16083 -13.9497 -0.312335 0.0134601 0.949877 6 6 6
5.13493 1.16057 -13.9502 -0.455224 0.0158436 0.890236 9 9 9
5.08712 1.16069 -13.9715 -0.333709 0.00580073 0.942658 0 0 0
5.10736 1.15642 -13.9523 -0.285863 0.0246186 0.957954 1 1 1
5.05236 1.15586 -13.9638 -0.31156 0.00692856 0.950201 0 0 0
7.25131 1.10693 -12.2016 -0.410889 0.0697387 0.909014 88 88 88
6.62842 1.03808 -11.4991 -0.734064 0.0396538 0.677921 213 213 213
6.53582 1.04186 -11.5853 -0.823011 0.00797053 0.567969 112 112 112
6.31991 1.08509 -12.0058 -0.416668 -0.717513 0.558179 131 131 131
5.10824 1.20246 -13.9656 -0.497847 0.011741 0.867186 0 0 0
5.15637 1.20194 -13.9397 -0.448279 0.00607416 0.893873 76 76 76
5.07764 1.20005 -13.957 -0.29484 0.00395319 0.955539 0 0 0
6.62558 1.05629 -11.45 -0.856427 -0.0283108 0.515492 118 118 118
6.53578 1.08502 -11.5766 -0.746115 0.00837941 0.665765 127 127 127
6.5126 1.065 -11.6142 -0.869674 -0.00168329 0.493624 104 104 104
6.4926 1.08468 -11.6074 -0.728675 0.0175264 0.684635 109 109 109
5.13246 1.24606 -13.9478 -0.30355 0.00641467 0.952794 10 10 10
5.1527 1.24491 -13.9384 -0.333228 -0.00311049 0.942841 70 70 70
5.0844 1.24887 -13.9993 -0.282614 -0.0022835 0.959231 0 0 0
5.10248 1.24504 -13.953 -0.248828 -0.00287472 0.968543 0 0 0
6.56295 1.10784 -11.5492 -0.712609 0.00643872 0.701532 202 202 202
6.48038 1.12976 -11.6063 -0.231389 -0.869061 0.437255 138 138 138
6.4105 1.11857 -11.5546 0.161397 -0.120554 0.979499 145 145 145
6.40046 1.11926 -11.5659 0.368833 -0.329887 0.868986 146 146 146
6.32205 1.10792 -11.5404 -0.780513 0.333341 0.528851 140 140 140
5.07076 1.28919 -13.9529 -0.257088 0.000390586 0.966388 0 0 0
6.38884 1.14603 -11.52 -0.34556 0.0218258 0.938143 209 209 209
6.34685 1.14757 -11.5548 0.0984672 -0.134397 0.986023 169 169 169
6.30267 1.14771 -11.5521 -0.600738 0.173033 0.780495 126 126 126
5.09608 1.33481 -13.9591 -0.228352 -0.0117916 0.973507 0 0 0
5.05051 1.33496 -13.9792 -0.402685 -0.0249757 0.914998 0 0 0
6.57805 1.21119 -11.4241 -0.698887 0.00219303 0.715229 221 221 221
6.53323 1.19059 -11.5516 -0.701141 0.18462 0.688707 221 221 221
6.4162 1.19775 -11.5268 -0.0893642 0.00540261 0.995984 235 235 235
6.40953 1.18583 -11.5322 -0.169204 -0.220801 0.96053 235 235 235
6.41025 1.22251 -11.5119 -0.485331 0.0341337 0.873664 221 221 221
6.35298 1.22084 -11.5234 -0.718792 0.02582 0.694745 209 209 209
6.328 1.18783 -11.5709 -0.835375 -0.0910359 0.54209 145 145 145
6.31535 1.19244 -11.55 0.110519 -0.0805461 0.990605 128 128 128
5.04971 1.41822 -13.9575 -0.261087 0.00407063 0.965307 0 0 0
6.57789 1.25587 -11.4237 -0.665475 -0.00351507 0.746412 221 221 221
6.61189 1.24393 -11.3894 -0.68526 -0.00270813 0.728293 206 206 206
6.42189 1.2559 -11.558 0.0610248 -0.00319518 0.998131 235 235 235
6.40105 1.26002 -11.4803 -0.755947 0.00232452 0.654629 221 221 221
6.2948 1.24885 -11.559 0.0918698 0.0312803 0.99528 128 128 128
6.63626 1.26618 -11.3617 -0.762614 -0.00439607 0.646839 97 97 97
6.61218 1.28893 -11.3895 -0.782454 -0.00713541 0.622667 197 197 197
6.60649 1.27857 -11.3975 -0.735792 -0.00371232 0.677198 201 201 201
6.36468 1.30575 -11.5062 -0.728972 -0.0458791 0.683004 219 219 219
6.31791 1.28931 -11.5632 -0.380452 0.0459239 0.92366 133 133 133
5.1223 1.51207 -13.96 -0.502565 0.0185595 0.86434 1 1 1
5.08107 1.4889 -13.9785 -0.516127 0.00851433 0.85647 0 0 0
6.7096 1.32579 -11.3026 -0.360234 -0.0398773 0.932009 64 64 64
6.5485 1.34191 -11.507 -0.0482342 0.425098 0.903861 235 235 235
6.44414 1.34641 -11.4873 -0.295298 0.698751 0.651572 235 235 235
6.33778 1.32614 -11.5344 -0.129577 -0.042081 0.990676 173 173 173
6.29468 1.32673 -11.5463 0.103507 -0.0794187 0.991453 129 129 129
5.12459 1.56092 -13.9617 -0.583684 -0.00827249 0.811939 2 2 2
5.08205 1.53693 -13.9786 -0.537229 -0.00699411 0.843408 0 0 0
6.70812 1.36621 -11.3141 -0.368254 -0.0307698 0.929216 72 72 72
6.54906 1.39149 -11.5497 -0.621142 -0.0720288 0.780381 226 226 226
6.32856 1.39556 -11.5618 0.0385586 0.261584 0.96441 144 144 144
6.31731 1.36573 -11.5495 -0.78801 -0.136354 0.600373 141 141 141
6.24558 1.40515 -12.0067 0.379228 -0.100016 0.919882 138 138 138
5.12711 1.60726 -13.9664 -0.705574 -0.0324088 0.707895 9 9 9
5.08159 1.58505 -13.9787 -0.529615 -0.00211083 0.848236 0 0 0
6.54317 1.43688 -11.5489 -0.785243 0.0754686 0.614571 171 171 171
6.51552 1.41552 -11.5729 -0.318958 0.0778365 0.944567 157 157 157
6.50085 1.41836 -11.5972 -0.449182 0.115684 0.885919 164 164 164
6.40126 1.44532 -11.676 -0.301539 0.302365 0.90424 93 93 93
6.37651 1.44753 -11.6977 -0.300658 0.304617 0.903777 113 113 113
6.50177 1.46918 -11.5523 -0.360084 0.0425815 0.931948 92 92 92
6.4632 1.47218 -11.5975 -0.580028 0.592294 0.559245 89 89 89
5.10858 1.72259 -14.002 -0.731404 -0.0031397 0.681937 0 0 0
5.13024 1.69886 -13.9702 -0.752593 0.022454 0.658103 5 5 5
6.56634 1.50813 -11.5294 -0.367814 -0.0409017 0.928999 230 230 230
6.43149 1.52985 -11.7144 -0.671095 -0.393712 0.628189 29 29 29
6.2822 1.56412 -12.0586 -0.367283 -0.273825 0.888889 123 123 123
5.13403 1.7452 -13.9699 -0.787783 -0.00873758 0.615891 4 4 4
9.47063 1.69422 -12.4475 -0.697607 -0.000476584 0.71648 0 0 0
6.50937 1.54915 -11.5582 -0.869361 -0.123095 0.478602 70 70 70
6.48658 1.56926 -11.6017 -0.26951 0.0629838 0.960936 21 21 21
6.45947 1.57118 -11.6201 -0.312585 0.0198209 0.949683 0 0 0
6.4137 1.57103 -11.6342 -0.713687 0.0965515 0.693779 2 2 2
5.13364 1.79013 -13.9701 -0.78172 -0.020668 0.623287 3 3 3
5.11042 1.8126 -14.0029 -0.755878 -0.0172846 0.654484 0 0 0
6.57327 1.58697 -11.5261 -0.819948 -0.135652 0.556133 115 115 115
6.541 1.60088 -11.5123 -0.695617 -0.535379 0.479048 30 30 30
6.50385 1.60422 -11.5161 -0.682531 -0.591306 0.429545 17 17 17
6.47667 1.61102 -11.6118 -0.768907 -0.105016 0.630677 0 0 0
5.37723 1.72015 -12.7709 -0.177334 0.705239 0.686433 62 62 62
5.10349 1.85659 -13.9964 -0.581493 0.00232642 0.813548 0 0 0
5.07263 1.87967 -14.0032 -0.629923 -0.0112044 0.776577 0 0 0
6.50999 1.64577 -11.502 -0.726621 -0.526317 0.441602 0 0 0
6.4728 1.65939 -11.6029 -0.856172 -0.15082 0.49419 0 0 0
6.54747 1.67381 -11.4537 -0.686478 -0.590382 0.424496 0 0 0
6.51605 1.67797 -11.4548 -0.715901 -0.550335 0.429671 0 0 0
5.15906 1.93594 -13.6783 -0.181173 -0.80715 0.561858 0 0 0
5.27321 1.88934 -13.0978 -0.544768 -0.674101 0.498814 12 12 12
5.11673 1.95965 -13.6128 -0.16175 -0.777972 0.607122 0 0 0
6.52675 -1.88094 -11.076 -0.686488 -0.481888 0.544534 0 0 0
7.07353 -1.85574 -10.8605 -0.593923 -0.610929 0.523471 0 0 0
6.64271 -1.85891 -11.0002 -0.552803 0.762174 0.336898 0 0 0
7.03791 -1.80437 -10.7813 -0.914055 -0.0711842 0.399295 0 0 0
7.01978 -1.78194 -10.8209 -0.91014 0.0186408 0.413881 0 0 0
7.03278 -1.75686 -10.7798 -0.939063 0.00942122 0.343615 0 0 0
7.01931 -1.73372 -10.8173 -0.939053 0.00910987 0.343651 5 5 5
7.01931 -1.73372 -10.8173 -0.939053 0.00910987 0.343651 5 5 5
5.78034 -1.74612 -11.3811 -0.223176 0.897922 0.379379 0 0 0
7.0194 -1.68745 -10.8153 -0.939085 0.0304428 0.342333 32 32 32
5.63137 -1.73814 -11.7408 -0.449292 0.400489 0.798589 0 0 0
6.51725 -1.6584 -10.9988 -0.597222 -0.572101 0.562162 252 252 252
5.89412 -1.68689 -11.4496 -0.77743 0.458877 0.430156 54 54 54
5.05528 -1.74251 -12.0723 -0.52171 0.742197 0.420668 0 0 0
5.88016 -1.61683 -11.4417 -0.679836 -0.455548 0.574717 254 254 254
5.05268 -1.70416 -12.0834 -0.703009 0.54882 0.452299 0 0 0
5.85198 -1.5697 -11.4113 -0.680343 -0.452595 0.576448 255 255 255
5.85069 -1.57188 -11.4146 -0.685045 -0.436234 0.583449 255 255 255
5.78007 -1.58454 -11.46 -0.308264 -0.475803 0.823763 253 253 253
5.7794 -1.60597 -11.5991 -0.423899 -0.647706 0.633077 253 253 253
5.78103 -1.52273 -11.2415 -0.844181 -0.116968 0.523141 233 233 233
5.76302 -1.5392 -11.4227 -0.657843 -0.226423 0.718314 250 250 250
6.75006 -1.48964 -10.9431 -0.470709 0.809901 0.349991 108 108 108
5.74386 -1.50357 -11.3674 -0.601517 0.254006 0.757402 108 108 108
5.68597 -1.52375 -11.4795 -0.783345 -0.269661 0.560048 185 185 185
5.59171 -1.47728 -11.577 -0.31452 0.785533 0.532931 1 1 1
5.34513 -1.49435 -11.7005 -0.859352 -0.0987465 0.50176 92 92 92
5.30893 -1.47759 -11.7882 -0.821081 -0.0935711 0.56309 9 9 9
6.86951 -1.3999 -10.9546 -0.88182 -0.0303908 0.470605 239 239 239
5.6468 -1.44564 -11.5802 -0.33894 0.788549 0.513138 0 0 0
5.63942 -1.44891 -11.6329 -0.336263 0.751104 0.568129 0 0 0
4.93966 -1.51006 -12.6116 -0.852617 0.19889 0.483205 187 187 187
7.01746 -1.30495 -10.8713 -0.782882 0.517181 0.34586 141 141 141
5.0177 -1.43644 -12.5688 -0.240081 -0.466164 0.8515 0 0 0
7.20148 -1.11328 -10.7532 -0.710246 0.467835 0.526004 4 4 4
6.88874 -1.07324 -10.8831 -0.811565 0.243754 0.530987 241 241 241
6.96793 -1.06251 -10.8702 -0.383662 0.240795 0.891527 233 233 233
7.2779 -0.960243 -10.7863 -0.773197 0.546238 0.322165 219 219 219
6.91404 -0.980039 -10.8856 -0.749465 0.550066 0.368415 228 228 228
7.28347 -0.928807 -10.8289 -0.700678 0.366912 0.611903 234 234 234
7.08161 -0.93741 -10.8292 -0.679429 0.28594 0.675732 252 252 252
7.24727 -0.867104 -10.8128 -0.347868 0.414797 0.840792 233 233 233
5.78137 -0.739237 -13.808 -0.443169 0.198147 0.874265 227 227 227
5.47672 -0.539206 -11.8007 -0.704817 0.156809 0.691841 224 224 224
5.40546 -0.540118 -11.8263 -0.688758 0.139944 0.711357 224 224 224
5.29017 -0.62266 -14.2709 -0.514641 -0.678525 0.524166 214 214 214
5.28252 -0.603291 -14.2869 -0.479616 -0.681432 0.552828 215 215 215
5.45843 -0.501697 -11.8344 -0.63962 0.509769 0.575346 196 196 196
5.47232 -0.508135 -11.8857 -0.585533 0.678034 0.444322 172 172 172
5.30861 -0.584734 -14.24 -0.649166 -0.51862 0.556432 215 215 215
5.23258 -0.560482 -14.279 -0.374591 -0.640652 0.670259 210 210 210
5.53178 -0.450363 -11.8039 -0.783416 0.373509 0.49674 145 145 145
6.67736 -0.39295 -10.6734 -0.39174 -0.118506 0.912412 131 131 131
6.22908 -0.356509 -10.839 -0.859871 0.083606 0.503619 151 151 151
5.54151 -0.301802 -11.7634 -0.311658 -0.583663 0.749804 154 154 154
5.54448 -0.301693 -11.7719 -0.647909 -0.416727 0.637615 154 154 154
5.10472 -0.357591 -14.3163 -0.872143 -0.00226062 0.489246 128 128 128
5.58905 -0.270957 -11.6045 -0.698884 0.0470139 0.713688 142 142 142
5.54909 -0.284763 -11.6813 -0.676307 -0.452703 0.581093 146 146 146
5.52277 -0.260499 -11.9959 -0.680351 -0.127281 0.721749 147 147 147
5.51264 -0.260315 -11.9121 -0.689057 0.0178289 0.724488 132 132 132
5.52106 -0.260523 -11.9147 -0.653742 0.0817991 0.752283 132 132 132
5.56444 -0.227764 -11.4638 -0.267324 -0.555664 0.787258 20 20 20
6.09389 -0.186421 -11.3022 -0.258432 0.827983 0.497652 35 35 35
5.83211 -0.178585 -11.2456 -0.173557 0.780087 0.601117 78 78 78
5.53963 -0.157876 -11.4434 -0.363919 -0.697503 0.617295 179 179 179
5.43687 -0.1576 -12.8917 -0.801208 0.113199 0.587581 16 16 16
5.42455 -0.138217 -12.8431 -0.802682 0.101221 0.587755 46 46 46
5.28668 -0.150274 -13.1557 -0.877914 0.126138 0.461905 20 20 20
5.29559 -0.168026 -13.1477 -0.717517 0.519132 0.464405 13 13 13
5.26785 -0.145611 -13.2012 -0.62324 0.101278 0.775445 21 21 21
5.41793 -0.111404 -12.8849 -0.786665 0.177398 0.591344 142 142 142
5.35754 -0.0700759 -12.8782 -0.83382 0.0108613 0.55193 157 157 157
5.77969 0.143815 -11.3032 -0.729206 0.429456 0.532754 186 186 186
5.91582 0.186018 -11.18 -0.27103 -0.0584295 0.960796 155 155 155
5.88482 0.208224 -11.1792 -0.442968 0.108195 0.889985 177 177 177
5.84334 0.18467 -11.1975 -0.17273 0.0849253 0.981301 119 119 119
6.52126 0.217542 -10.8407 -0.603479 0.0157855 0.797222 183 183 183
6.46749 0.23953 -10.8968 -0.845437 -0.0574015 0.530982 132 132 132
5.94604 0.224987 -11.1794 -0.168985 -0.374239 0.911806 186 186 186
5.85626 0.230275 -11.2075 -0.849318 -0.0201343 0.527498 124 124 124
5.81369 0.230264 -11.218 -0.274431 -0.0622785 0.959588 90 90 90
6.55244 0.280834 -10.8058 -0.822285 -0.0129344 0.568929 245 245 245
5.88572 0.284171 -11.1831 -0.706898 -0.00488656 0.707299 179 179 179
5.79451 0.268558 -11.2235 -0.320074 -0.0201619 0.947178 101 101 101
6.53338 0.301909 -10.8118 -0.927119 -0.0212781 0.374162 202 202 202
5.89438 0.369759 -11.1857 -0.589818 0.0345129 0.806798 166 166 166
5.91661 0.405762 -11.1618 -0.428765 -0.00569314 0.903398 167 167 167
5.91511 0.515019 -11.1688 -0.377685 -0.0289024 0.925483 126 126 126
6.44718 0.567604 -10.8707 -0.387006 -0.000523659 0.922077 141 141 141
5.83687 0.61036 -11.7987 -0.481821 0.000188652 0.876269 91 91 91
6.50218 0.623991 -10.822 -0.864312 -0.130474 0.485739 167 167 167
5.81324 0.658254 -11.813 0.104695 0.188609 0.976456 90 90 90
5.92972 0.666216 -11.1423 -0.848837 -0.0986384 0.519372 145 145 145
5.77797 0.695957 -11.7988 0.111858 0.152612 0.981936 101 101 101
6.57423 0.688985 -10.7366 -0.435775 -0.6049 0.66648 108 108 108
6.39856 0.746357 -10.899 -0.239284 -0.0956539 0.966227 168 168 168
6.33965 0.745022 -10.9274 -0.410443 -0.0832568 0.908077 142 142 142
6.00948 0.751029 -11.1244 -0.765184 0.167383 0.621673 146 146 146
6.19188 0.764597 -11.0043 -0.743284 -0.168099 0.647511 115 115 115
5.92298 0.764501 -11.1867 -0.409957 -0.61655 0.672162 145 145 145
6.52376 0.928483 -11.6137 -0.73695 -0.0269523 0.675409 71 71 71
5.07417 1.07185 -13.9791 -0.372086 -0.00479581 0.928186 0 0 0
5.15252 1.11704 -13.9424 -0.294302 0.000789499 0.955712 54 54 54
5.13197 1.11197 -13.9441 -0.285672 0.0047835 0.958315 11 11 11
5.12705 1.29034 -13.9529 -0.512066 -0.00552938 0.858928 5 5 5
6.30569 1.19729 -12.0075 -0.0604297 0.0894588 0.994156 85 85 85
5.12254 1.33248 -13.9602 -0.507702 -0.00843062 0.861492 1 1 1
6.65064 1.19948 -11.3226 -0.910797 0.00573607 0.412815 59 59 59
5.07337 1.37798 -13.9755 -0.370211 -0.00722522 0.92892 0 0 0
6.35917 1.25993 -11.5026 -0.866156 0.00806499 0.499708 218 218 218
6.26449 1.28427 -11.9951 -0.0387076 -0.06319 0.997251 102 102 102
5.19582 1.42815 -13.8775 -0.751172 -0.0261532 0.659589 162 162 162
5.12733 1.42461 -13.9625 -0.579029 0.0203752 0.815052 2 2 2
6.57923 1.28101 -11.4596 -0.789595 -0.00095981 0.613628 228 228 228
6.2426 1.32416 -11.9997 0.0410076 -0.0291945 0.998732 102 102 102
6.58933 1.34727 -11.4272 -0.878109 0.000345658 0.47846 204 204 204
6.51767 1.41103 -11.5774 -0.475815 0.676642 0.561921 176 176 176
6.44397 1.44474 -11.6551 -0.337758 0.40535 0.849477 74 74 74
6.42884 1.48633 -11.6824 -0.326738 0.402805 0.85498 62 62 62
6.51703 1.50835 -11.54 -0.865782 -0.184007 0.465364 135 135 135
6.49481 1.52452 -11.6023 -0.909454 -0.130471 0.394804 0 0 0
5.2203 1.80554 -13.5781 -0.55632 -0.0712026 0.827912 148 148 148
5.13257 1.83512 -13.9703 -0.778938 -0.0101361 0.627019 1 1 1
5.24785 1.7921 -13.3352 -0.663953 0.230031 0.711514 151 151 151
5.43396 1.79995 -12.3543 -0.869693 0.0179653 0.493267 134 134 134
5.3349 1.88539 -12.9516 -0.747326 -0.306122 0.58974 34 34 34
5.10013 1.95232 -13.6663 -0.159345 -0.775539 0.610858 0 0 0
5.05715 1.96699 -14.0027 -0.679775 -0.168793 0.713733 0 0 0
6.57355 -1.84422 -11.0293 -0.480273 0.78394 0.393416 0 0 0
6.32131 -1.85375 -11.11 -0.887156 0.415625 0.200525 0 0 0
6.60603 -1.7966 -11.0685 -0.283982 0.741783 0.607546 59 59 59
5.86574 -1.7534 -11.616 -0.599849 -0.54315 0.587511 0 0 0
5.58227 -1.75379 -11.7264 -0.568781 0.749173 0.339454 0 0 0
5.23505 -1.71428 -11.919 -0.607633 0.687845 0.397054 0 0 0
4.94719 -1.75664 -12.5066 -0.911484 0.360961 0.197242 0 0 0
5.96372 -1.67133 -11.3219 -0.586769 -0.619789 0.521117 10 10 10
5.83482 -1.69468 -11.4748 -0.602517 -0.605291 0.520188 11 11 11
5.8515 -1.68764 -11.4983 -0.72001 -0.17756 0.670863 46 46 46
5.85039 -1.70876 -11.5481 -0.919679 0.13164 0.369949 2 2 2
5.3918 -1.70452 -11.8799 -0.73011 0.671241 0.127968 0 0 0
5.08204 -1.6971 -12.0472 -0.502404 0.790489 0.350311 0 0 0
5.02536 -1.70606 -12.1259 -0.559331 0.734584 0.384105 0 0 0
4.9768 -1.69769 -12.1976 -0.650038 0.586313 0.483412 0 0 0
4.99478 -1.70845 -12.1692 -0.548485 0.745135 0.379392 0 0 0
4.98211 -1.71938 -12.4842 -0.940343 0.333241 0.0686003 0 0 0
4.94599 -1.73369 -12.545 -0.934593 0.306125 0.181173 0 0 0
4.91455 -1.72472 -12.6455 -0.89977 0.425874 0.0951053 0 0 0
5.94015 -1.62683 -11.2424 -0.62108 -0.52178 0.584812 191 191 191
5.90605 -1.60073 -11.1981 -0.436478 -0.6814 0.587521 250 250 250
